-38.8228539951,-22.0246453718,-305.697
-38.8228539951,-22.0336285247,-227.428
-38.8228539951,-22.0426116775,-191.318
-38.8228539951,-22.0515948303,-176.668
-38.8228539951,-22.0605779832,-155.945
-38.8228539951,-22.0695611360,-123.008
-38.8228539951,-22.0785442889,-79.344
-38.8228539951,-22.0875274417,-34.881
-38.8228539951,-22.0965105946,15.392
-38.8228539951,-22.1054937474,88.072
-38.8228539951,-22.1144769002,168.783
-38.8228539951,-22.1234600531,237.919
-38.8228539951,-22.1324432059,300.379
-38.8228539951,-22.1414263588,361.897
-38.8228539951,-22.1504095116,430.523
-38.8228539951,-22.1593926644,504.753
-38.8228539951,-22.1683758173,572.017
-38.8228539951,-22.1773589701,644.547
-38.8228539951,-22.1863421230,711.916
-38.8228539951,-22.1953252758,757.541
-38.8228539951,-22.2043084286,793.347
-38.8228539951,-22.2132915815,839.289
-38.8228539951,-22.2222747343,889.236
-38.8228539951,-22.2312578872,941.585
-38.8228539951,-22.2402410400,1015.446
-38.8228539951,-22.2492241929,1082.304
-38.8228539951,-22.2582073457,1137.898
-38.8228539951,-22.2671904985,1200.669
-38.8228539951,-22.2761736514,1291.808
-38.8228539951,-22.2851568042,1404.924
-38.8228539951,-22.2941399571,1486.384
-38.8228539951,-22.3031231099,1515.846
-38.8228539951,-22.3121062627,1523.303
-38.8228539951,-22.3210894156,1519.187
-38.8228539951,-22.3300725684,1510.081
-38.8228539951,-22.3390557213,1504.619
-38.8228539951,-22.3480388741,1505.131
-38.8228539951,-22.3570220269,1505.023
-38.8228539951,-22.3660051798,1501.108
-38.8228539951,-22.3749883326,1492.318
-38.8228539951,-22.3839714855,1482.859
-38.8228539951,-22.3929546383,1475.734
-38.8228539951,-22.4019377912,1476.193
-38.8228539951,-22.4109209440,1466.193
-38.8228539951,-22.4199040968,1433.49
-38.8228539951,-22.4288872497,1376.904
-38.8228539951,-22.4378704025,1306.55
-38.8228539951,-22.4468535554,1259.904
-38.8228539951,-22.4558367082,1245.669
-38.8228539951,-22.4648198610,1252.306
-38.8228539951,-22.4738030139,1271.41
-38.8228539951,-22.4827861667,1289.175
-38.8228539951,-22.4917693196,1289.483
-38.8228539951,-22.5007524724,1250.34
-38.8228539951,-22.5097356252,1185.18
-38.8228539951,-22.5187187781,1137.544
-38.8228539951,-22.5277019309,1103.094
-38.8228539951,-22.5366850838,1084.794
-38.8228539951,-22.5456682366,1076.386
-38.8228539951,-22.5546513895,1072.827
-38.8228539951,-22.5636345423,1076.295
-38.8228539951,-22.5726176951,1083.516
-38.8228539951,-22.5816008480,1095.263
-38.8228539951,-22.5905840008,1107.828
-38.8228539951,-22.5995671537,1106.174
-38.8228539951,-22.6085503065,1093.27
-38.8228539951,-22.6175334593,1085.181
-38.8228539951,-22.6265166122,1079.79
-38.8228539951,-22.6354997650,1081.191
-38.8228539951,-22.6444829179,1086.704
-38.8228539951,-22.6534660707,1093.974
-38.8228539951,-22.6624492235,1102.363
-38.8228539951,-22.6714323764,1111.467
-38.8228539951,-22.6804155292,1115.215
-38.8228539951,-22.6893986821,1121.484
-38.8228539951,-22.6983818349,1140.254
-38.8228539951,-22.7073649878,1170.017
-38.8228539951,-22.7163481406,1195.714
-38.8228539951,-22.7253312934,1214.46
-38.8228539951,-22.7343144463,1228.054
-38.8228539951,-22.7432975991,1241.278
-38.8228539951,-22.7522807520,1258.605
-38.8228539951,-22.7612639048,1279.075
-38.8228539951,-22.7702470576,1296.273
-38.8228539951,-22.7792302105,1299.661
-38.8228539951,-22.7882133633,1283.383
-38.8228539951,-22.7971965162,1247.837
-38.8228539951,-22.8061796690,1203.448
-38.8228539951,-22.8151628218,1161.227
-38.8138708422,-20.7939534326,797.35
-38.8138708422,-20.8029365854,813.251
-38.8138708422,-20.8119197383,827.514
-38.8138708422,-20.8209028911,839.187
-38.8138708422,-20.8298860439,847.259
-38.8138708422,-20.8388691968,851.539
-38.8138708422,-20.8478523496,853.384
-38.8138708422,-20.8568355025,855.068
-38.8138708422,-20.8658186553,859.854
-38.8138708422,-20.8748018081,869.36
-38.8138708422,-20.8837849610,883.791
-38.8138708422,-20.8927681138,903.156
-38.8138708422,-20.9017512667,926.755
-38.8138708422,-20.9107344195,952.243
-38.8138708422,-20.9197175724,976.761
-38.8138708422,-20.9287007252,995.595
-38.8138708422,-20.9376838780,1004.787
-38.8138708422,-20.9466670309,1003.2
-38.8138708422,-20.9556501837,994.137
-38.8138708422,-20.9646333366,985.674
-38.8138708422,-20.9736164894,983.294
-38.8138708422,-20.9825996422,992.498
-38.8138708422,-20.9915827951,1009.793
-38.8138708422,-21.0005659479,1022.98
-38.8138708422,-21.0095491008,1029.034
-38.8138708422,-21.0185322536,1054.245
-38.8138708422,-21.0275154065,1107.011
-38.8138708422,-21.0364985593,1176.766
-38.8138708422,-21.0454817121,1216.173
-38.8138708422,-21.0544648650,1205.422
-38.8138708422,-21.0634480178,1244.554
-38.8138708422,-21.0724311707,1333.611
-38.8138708422,-21.0814143235,1341.607
-38.8138708422,-21.0903974763,1266.521
-38.8138708422,-21.0993806292,1178.085
-38.8138708422,-21.1083637820,1095.544
-38.8138708422,-21.1173469349,1044.36
-38.8138708422,-21.1263300877,1023.705
-38.8138708422,-21.1353132405,1024.397
-38.8138708422,-21.1442963934,1046.378
-38.8138708422,-21.1532795462,1080.009
-38.8138708422,-21.1622626991,1107.128
-38.8138708422,-21.1712458519,1114.755
-38.8138708422,-21.1802290048,1063.735
-38.8138708422,-21.1892121576,962.103
-38.8138708422,-21.1981953104,841.84
-38.8138708422,-21.2071784633,707.45
-38.8138708422,-21.2161616161,637.587
-38.8138708422,-21.2251447690,683.967
-38.8138708422,-21.2341279218,732.64
-38.8138708422,-21.2431110746,726.99
-38.8138708422,-21.2520942275,653.522
-38.8138708422,-21.2610773803,515.244
-38.8138708422,-21.2700605332,318.452
-38.8138708422,-21.2790436860,137.016
-38.8138708422,-21.2880268388,49.52
-38.8138708422,-21.2970099917,27.401
-38.8138708422,-21.3059931445,46.435
-38.8138708422,-21.3149762974,65.776
-38.8138708422,-21.3239594502,54.293
-38.8138708422,-21.3329426031,31.895
-38.8138708422,-21.3419257559,-23.533
-38.8138708422,-21.3509089087,-87.667
-38.8138708422,-21.3598920616,-141.765
-38.8138708422,-21.3688752144,-185.413
-38.8138708422,-21.3778583673,-195.924
-38.8138708422,-21.3868415201,-184.736
-38.8138708422,-21.3958246729,-140.659
-38.8138708422,-21.4048078258,-43.451
-38.8138708422,-21.4137909786,33.58
-38.8138708422,-21.4227741315,32.456
-38.8138708422,-21.4317572843,15.4
-38.8138708422,-21.4407404371,35.456
-38.8138708422,-21.4497235900,65.282
-38.8138708422,-21.4587067428,52.644
-38.8138708422,-21.4676898957,20.873
-38.8138708422,-21.4766730485,30.153
-38.8138708422,-21.4856562014,49.095
-38.8138708422,-21.4946393542,41.622
-38.8138708422,-21.5036225070,-2.803
-38.8138708422,-21.5126056599,-80.684
-38.8138708422,-21.5215888127,-171.31
-38.8138708422,-21.5305719656,-255.452
-38.8138708422,-21.5395551184,-328.686
-38.8138708422,-21.5485382712,-393.922
-38.8138708422,-21.5575214241,-454.484
-38.8138708422,-21.5665045769,-509.702
-38.8138708422,-21.5754877298,-556.634
-38.8138708422,-21.5844708826,-591.917
-38.8138708422,-21.5934540354,-616.991
-38.8138708422,-21.6024371883,-635.386
-38.8138708422,-21.6114203411,-648.411
-38.8138708422,-21.6204034940,-653.835
-38.8138708422,-21.6293866468,-651.221
-38.8138708422,-21.6383697997,-647.392
-38.8138708422,-21.6473529525,-647.657
-38.8138708422,-21.6563361053,-650.209
-38.8138708422,-21.6653192582,-652.427
-38.8138708422,-21.6743024110,-653.986
-38.8138708422,-21.6832855639,-655.163
-38.8138708422,-21.6922687167,-656.426
-38.8138708422,-21.7012518695,-659.772
-38.8138708422,-21.7102350224,-669.565
-38.8138708422,-21.7192181752,-685.217
-38.8138708422,-21.7282013281,-698.618
-38.8138708422,-21.7371844809,-709.055
-38.8138708422,-21.7461676337,-717.715
-38.8138708422,-21.7551507866,-718.904
-38.8138708422,-21.7641339394,-719.314
-38.8138708422,-21.7731170923,-722.379
-38.8138708422,-21.7821002451,-722.388
-38.8138708422,-21.7910833980,-719.288
-38.8138708422,-21.8000665508,-714.483
-38.8138708422,-21.8090497036,-704.925
-38.8138708422,-21.8180328565,-693.343
-38.8138708422,-21.8270160093,-676.002
-38.8138708422,-21.8359991622,-658.821
-38.8138708422,-21.8449823150,-644.887
-38.8138708422,-21.8539654678,-637.886
-38.8138708422,-21.8629486207,-638.874
-38.8138708422,-21.8719317735,-636.006
-38.8138708422,-21.8809149264,-635.77
-38.8138708422,-21.8898980792,-647.217
-38.8138708422,-21.8988812320,-663.98
-38.8138708422,-21.9078643849,-676.135
-38.8138708422,-21.9168475377,-683.486
-38.8138708422,-21.9258306906,-683.951
-38.8138708422,-21.9348138434,-675.737
-38.8138708422,-21.9437969963,-666.403
-38.8138708422,-21.9527801491,-657.366
-38.8138708422,-21.9617633019,-648.05
-38.8138708422,-21.9707464548,-635.374
-38.8138708422,-21.9797296076,-615.988
-38.8138708422,-21.9887127605,-585.918
-38.8138708422,-21.9976959133,-539.239
-38.8138708422,-22.0066790661,-467.203
-38.8138708422,-22.0156622190,-369.331
-38.8138708422,-22.0246453718,-265.37
-38.8138708422,-22.0336285247,-182.776
-38.8138708422,-22.0426116775,-128.801
-38.8138708422,-22.0515948303,-93.074
-38.8138708422,-22.0605779832,-54.278
-38.8138708422,-22.0695611360,-5.625
-38.8138708422,-22.0785442889,38.141
-38.8138708422,-22.0875274417,71.947
-38.8138708422,-22.0965105946,125.153
-38.8138708422,-22.1054937474,209.56
-38.8138708422,-22.1144769002,279.213
-38.8138708422,-22.1234600531,326.124
-38.8138708422,-22.1324432059,372.248
-38.8138708422,-22.1414263588,429.219
-38.8138708422,-22.1504095116,503.058
-38.8138708422,-22.1593926644,580.981
-38.8138708422,-22.1683758173,650.54
-38.8138708422,-22.1773589701,728.167
-38.8138708422,-22.1863421230,796.569
-38.8138708422,-22.1953252758,830.196
-38.8138708422,-22.2043084286,849.366
-38.8138708422,-22.2132915815,883.997
-38.8138708422,-22.2222747343,932.521
-38.8138708422,-22.2312578872,995.347
-38.8138708422,-22.2402410400,1072.252
-38.8138708422,-22.2492241929,1140.755
-38.8138708422,-22.2582073457,1198.389
-38.8138708422,-22.2671904985,1258.291
-38.8138708422,-22.2761736514,1333.104
-38.8138708422,-22.2851568042,1408.501
-38.8138708422,-22.2941399571,1460.685
-38.8138708422,-22.3031231099,1483.756
-38.8138708422,-22.3121062627,1492.882
-38.8138708422,-22.3210894156,1489.669
-38.8138708422,-22.3300725684,1476.962
-38.8138708422,-22.3390557213,1461.982
-38.8138708422,-22.3480388741,1450.26
-38.8138708422,-22.3570220269,1443.587
-38.8138708422,-22.3660051798,1441.288
-38.8138708422,-22.3749883326,1440.869
-38.8138708422,-22.3839714855,1437.29
-38.8138708422,-22.3929546383,1428.725
-38.8138708422,-22.4019377912,1422.367
-38.8138708422,-22.4109209440,1414.638
-38.8138708422,-22.4199040968,1395.756
-38.8138708422,-22.4288872497,1352.571
-38.8138708422,-22.4378704025,1284.832
-38.8138708422,-22.4468535554,1236.292
-38.8138708422,-22.4558367082,1217.481
-38.8138708422,-22.4648198610,1214.676
-38.8138708422,-22.4738030139,1222.972
-38.8138708422,-22.4827861667,1229.208
-38.8138708422,-22.4917693196,1229.98
-38.8138708422,-22.5007524724,1206.104
-38.8138708422,-22.5097356252,1151.917
-38.8138708422,-22.5187187781,1101.237
-38.8138708422,-22.5277019309,1071.495
-38.8138708422,-22.5366850838,1055.142
-38.8138708422,-22.5456682366,1046.053
-38.8138708422,-22.5546513895,1042.466
-38.8138708422,-22.5636345423,1044.628
-38.8138708422,-22.5726176951,1053.302
-38.8138708422,-22.5816008480,1069.17
-38.8138708422,-22.5905840008,1083.532
-38.8138708422,-22.5995671537,1083.127
-38.8138708422,-22.6085503065,1072.169
-38.8138708422,-22.6175334593,1067.07
-38.8138708422,-22.6265166122,1066.934
-38.8138708422,-22.6354997650,1070.951
-38.8138708422,-22.6444829179,1077.447
-38.8138708422,-22.6534660707,1082.26
-38.8138708422,-22.6624492235,1085.773
-38.8138708422,-22.6714323764,1093.342
-38.8138708422,-22.6804155292,1101.344
-38.8138708422,-22.6893986821,1111.527
-38.8138708422,-22.6983818349,1131.994
-38.8138708422,-22.7073649878,1157.442
-38.8138708422,-22.7163481406,1173.269
-38.8138708422,-22.7253312934,1187.42
-38.8138708422,-22.7343144463,1204.471
-38.8138708422,-22.7432975991,1221.536
-38.8138708422,-22.7522807520,1241.591
-38.8138708422,-22.7612639048,1264.633
-38.8138708422,-22.7702470576,1282.683
-38.8138708422,-22.7792302105,1283.58
-38.8138708422,-22.7882133633,1261.069
-38.8138708422,-22.7971965162,1218.427
-38.8138708422,-22.8061796690,1169.838
-38.8138708422,-22.8151628218,1128.149
-38.8048876894,-20.7939534326,783.608
-38.8048876894,-20.8029365854,799.339
-38.8048876894,-20.8119197383,812.726
-38.8048876894,-20.8209028911,823.358
-38.8048876894,-20.8298860439,830.02
-38.8048876894,-20.8388691968,833.774
-38.8048876894,-20.8478523496,837.745
-38.8048876894,-20.8568355025,842.538
-38.8048876894,-20.8658186553,848.707
-38.8048876894,-20.8748018081,858.746
-38.8048876894,-20.8837849610,872.172
-38.8048876894,-20.8927681138,888.683
-38.8048876894,-20.9017512667,907.825
-38.8048876894,-20.9107344195,928.039
-38.8048876894,-20.9197175724,946.832
-38.8048876894,-20.9287007252,961.995
-38.8048876894,-20.9376838780,971.537
-38.8048876894,-20.9466670309,975.407
-38.8048876894,-20.9556501837,974.566
-38.8048876894,-20.9646333366,972.515
-38.8048876894,-20.9736164894,971.536
-38.8048876894,-20.9825996422,976.335
-38.8048876894,-20.9915827951,986.935
-38.8048876894,-21.0005659479,1000.119
-38.8048876894,-21.0095491008,1017.946
-38.8048876894,-21.0185322536,1054.076
-38.8048876894,-21.0275154065,1112.177
-38.8048876894,-21.0364985593,1175.926
-38.8048876894,-21.0454817121,1215.802
-38.8048876894,-21.0544648650,1219.604
-38.8048876894,-21.0634480178,1234.861
-38.8048876894,-21.0724311707,1273.41
-38.8048876894,-21.0814143235,1264.812
-38.8048876894,-21.0903974763,1202.059
-38.8048876894,-21.0993806292,1131.068
-38.8048876894,-21.1083637820,1072.068
-38.8048876894,-21.1173469349,1036.059
-38.8048876894,-21.1263300877,1019.994
-38.8048876894,-21.1353132405,1016.158
-38.8048876894,-21.1442963934,1032.527
-38.8048876894,-21.1532795462,1071.873
-38.8048876894,-21.1622626991,1113.588
-38.8048876894,-21.1712458519,1123.518
-38.8048876894,-21.1802290048,1051.333
-38.8048876894,-21.1892121576,924.657
-38.8048876894,-21.1981953104,793.462
-38.8048876894,-21.2071784633,649.751
-38.8048876894,-21.2161616161,548.429
-38.8048876894,-21.2251447690,543.57
-38.8048876894,-21.2341279218,569.669
-38.8048876894,-21.2431110746,571.744
-38.8048876894,-21.2520942275,525.849
-38.8048876894,-21.2610773803,426.993
-38.8048876894,-21.2700605332,291.194
-38.8048876894,-21.2790436860,168.301
-38.8048876894,-21.2880268388,107.103
-38.8048876894,-21.2970099917,95.079
-38.8048876894,-21.3059931445,121.833
-38.8048876894,-21.3149762974,165.386
-38.8048876894,-21.3239594502,188.902
-38.8048876894,-21.3329426031,176.071
-38.8048876894,-21.3419257559,122.352
-38.8048876894,-21.3509089087,57.723
-38.8048876894,-21.3598920616,-6.744
-38.8048876894,-21.3688752144,-69.385
-38.8048876894,-21.3778583673,-107.165
-38.8048876894,-21.3868415201,-120.409
-38.8048876894,-21.3958246729,-103.632
-38.8048876894,-21.4048078258,-43.004
-38.8048876894,-21.4137909786,13.597
-38.8048876894,-21.4227741315,23.417
-38.8048876894,-21.4317572843,34.574
-38.8048876894,-21.4407404371,92.056
-38.8048876894,-21.4497235900,158.521
-38.8048876894,-21.4587067428,155.816
-38.8048876894,-21.4676898957,107.924
-38.8048876894,-21.4766730485,103.563
-38.8048876894,-21.4856562014,105.866
-38.8048876894,-21.4946393542,76.556
-38.8048876894,-21.5036225070,8.638
-38.8048876894,-21.5126056599,-92.969
-38.8048876894,-21.5215888127,-198.387
-38.8048876894,-21.5305719656,-283.191
-38.8048876894,-21.5395551184,-347.516
-38.8048876894,-21.5485382712,-401.608
-38.8048876894,-21.5575214241,-453.589
-38.8048876894,-21.5665045769,-505.266
-38.8048876894,-21.5754877298,-550.718
-38.8048876894,-21.5844708826,-583.572
-38.8048876894,-21.5934540354,-604.948
-38.8048876894,-21.6024371883,-622.197
-38.8048876894,-21.6114203411,-637.635
-38.8048876894,-21.6204034940,-641.467
-38.8048876894,-21.6293866468,-630.047
-38.8048876894,-21.6383697997,-621.129
-38.8048876894,-21.6473529525,-623.202
-38.8048876894,-21.6563361053,-629.084
-38.8048876894,-21.6653192582,-632.928
-38.8048876894,-21.6743024110,-634.548
-38.8048876894,-21.6832855639,-637.284
-38.8048876894,-21.6922687167,-640.433
-38.8048876894,-21.7012518695,-642.123
-38.8048876894,-21.7102350224,-652.208
-38.8048876894,-21.7192181752,-669.955
-38.8048876894,-21.7282013281,-683.936
-38.8048876894,-21.7371844809,-694.976
-38.8048876894,-21.7461676337,-704.312
-38.8048876894,-21.7551507866,-704.178
-38.8048876894,-21.7641339394,-701.638
-38.8048876894,-21.7731170923,-700.299
-38.8048876894,-21.7821002451,-696.688
-38.8048876894,-21.7910833980,-689.916
-38.8048876894,-21.8000665508,-681.65
-38.8048876894,-21.8090497036,-670.027
-38.8048876894,-21.8180328565,-656.03
-38.8048876894,-21.8270160093,-641.303
-38.8048876894,-21.8359991622,-627.678
-38.8048876894,-21.8449823150,-617.19
-38.8048876894,-21.8539654678,-612.036
-38.8048876894,-21.8629486207,-612.278
-38.8048876894,-21.8719317735,-613.325
-38.8048876894,-21.8809149264,-618.87
-38.8048876894,-21.8898980792,-630.887
-38.8048876894,-21.8988812320,-646.725
-38.8048876894,-21.9078643849,-662.773
-38.8048876894,-21.9168475377,-674.747
-38.8048876894,-21.9258306906,-677.049
-38.8048876894,-21.9348138434,-667.107
-38.8048876894,-21.9437969963,-649.522
-38.8048876894,-21.9527801491,-631.879
-38.8048876894,-21.9617633019,-615.627
-38.8048876894,-21.9707464548,-596.254
-38.8048876894,-21.9797296076,-566.472
-38.8048876894,-21.9887127605,-523.613
-38.8048876894,-21.9976959133,-474.719
-38.8048876894,-22.0066790661,-411.398
-38.8048876894,-22.0156622190,-319.522
-38.8048876894,-22.0246453718,-212.261
-38.8048876894,-22.0336285247,-121.925
-38.8048876894,-22.0426116775,-56.063
-38.8048876894,-22.0515948303,-8.116
-38.8048876894,-22.0605779832,48.756
-38.8048876894,-22.0695611360,121.504
-38.8048876894,-22.0785442889,169.099
-38.8048876894,-22.0875274417,179.594
-38.8048876894,-22.0965105946,209.668
-38.8048876894,-22.1054937474,296.619
-38.8048876894,-22.1144769002,379.863
-38.8048876894,-22.1234600531,423.664
-38.8048876894,-22.1324432059,465.621
-38.8048876894,-22.1414263588,523.683
-38.8048876894,-22.1504095116,597.938
-38.8048876894,-22.1593926644,669.884
-38.8048876894,-22.1683758173,745.354
-38.8048876894,-22.1773589701,821.591
-38.8048876894,-22.1863421230,881.78
-38.8048876894,-22.1953252758,908.856
-38.8048876894,-22.2043084286,923.44
-38.8048876894,-22.2132915815,951.363
-38.8048876894,-22.2222747343,996.058
-38.8048876894,-22.2312578872,1068.016
-38.8048876894,-22.2402410400,1146.352
-38.8048876894,-22.2492241929,1213.416
-38.8048876894,-22.2582073457,1269.207
-38.8048876894,-22.2671904985,1322.804
-38.8048876894,-22.2761736514,1373.207
-38.8048876894,-22.2851568042,1407.067
-38.8048876894,-22.2941399571,1429.517
-38.8048876894,-22.3031231099,1446.661
-38.8048876894,-22.3121062627,1460.637
-38.8048876894,-22.3210894156,1458.93
-38.8048876894,-22.3300725684,1439.338
-38.8048876894,-22.3390557213,1411.474
-38.8048876894,-22.3480388741,1385.454
-38.8048876894,-22.3570220269,1370.064
-38.8048876894,-22.3660051798,1370.822
-38.8048876894,-22.3749883326,1379.293
-38.8048876894,-22.3839714855,1385.016
-38.8048876894,-22.3929546383,1378.653
-38.8048876894,-22.4019377912,1364.567
-38.8048876894,-22.4109209440,1361.474
-38.8048876894,-22.4199040968,1357.786
-38.8048876894,-22.4288872497,1333.726
-38.8048876894,-22.4378704025,1268.81
-38.8048876894,-22.4468535554,1206.451
-38.8048876894,-22.4558367082,1179.557
-38.8048876894,-22.4648198610,1168.616
-38.8048876894,-22.4738030139,1168.421
-38.8048876894,-22.4827861667,1166.354
-38.8048876894,-22.4917693196,1166.097
-38.8048876894,-22.5007524724,1158.253
-38.8048876894,-22.5097356252,1123.982
-38.8048876894,-22.5187187781,1077.747
-38.8048876894,-22.5277019309,1044.417
-38.8048876894,-22.5366850838,1024.173
-38.8048876894,-22.5456682366,1014.005
-38.8048876894,-22.5546513895,1013.557
-38.8048876894,-22.5636345423,1017.922
-38.8048876894,-22.5726176951,1027.338
-38.8048876894,-22.5816008480,1041.65
-38.8048876894,-22.5905840008,1049.919
-38.8048876894,-22.5995671537,1050.924
-38.8048876894,-22.6085503065,1051.536
-38.8048876894,-22.6175334593,1054.573
-38.8048876894,-22.6265166122,1061.002
-38.8048876894,-22.6354997650,1072.419
-38.8048876894,-22.6444829179,1082.813
-38.8048876894,-22.6534660707,1083.962
-38.8048876894,-22.6624492235,1079.863
-38.8048876894,-22.6714323764,1082.857
-38.8048876894,-22.6804155292,1089.932
-38.8048876894,-22.6893986821,1100.954
-38.8048876894,-22.6983818349,1122.557
-38.8048876894,-22.7073649878,1145.167
-38.8048876894,-22.7163481406,1154.965
-38.8048876894,-22.7253312934,1165.447
-38.8048876894,-22.7343144463,1182.081
-38.8048876894,-22.7432975991,1200.134
-38.8048876894,-22.7522807520,1221.668
-38.8048876894,-22.7612639048,1251.029
-38.8048876894,-22.7702470576,1275.192
-38.8048876894,-22.7792302105,1279.454
-38.8048876894,-22.7882133633,1250.493
-38.8048876894,-22.7971965162,1193.199
-38.8048876894,-22.8061796690,1133.126
-38.8048876894,-22.8151628218,1089.874
-38.7959045366,-20.7939534326,771.696
-38.7959045366,-20.8029365854,787.741
-38.7959045366,-20.8119197383,799.365
-38.7959045366,-20.8209028911,809.269
-38.7959045366,-20.8298860439,814.752
-38.7959045366,-20.8388691968,816.853
-38.7959045366,-20.8478523496,821.645
-38.7959045366,-20.8568355025,828.168
-38.7959045366,-20.8658186553,835.372
-38.7959045366,-20.8748018081,845.406
-38.7959045366,-20.8837849610,857.778
-38.7959045366,-20.8927681138,872.286
-38.7959045366,-20.9017512667,888.607
-38.7959045366,-20.9107344195,904.579
-38.7959045366,-20.9197175724,919.002
-38.7959045366,-20.9287007252,930.931
-38.7959045366,-20.9376838780,940.761
-38.7959045366,-20.9466670309,948.936
-38.7959045366,-20.9556501837,954.422
-38.7959045366,-20.9646333366,957.186
-38.7959045366,-20.9736164894,955.66
-38.7959045366,-20.9825996422,954.617
-38.7959045366,-20.9915827951,959.331
-38.7959045366,-21.0005659479,971.075
-38.7959045366,-21.0095491008,993.202
-38.7959045366,-21.0185322536,1038.399
-38.7959045366,-21.0275154065,1109.502
-38.7959045366,-21.0364985593,1180.878
-38.7959045366,-21.0454817121,1235.113
-38.7959045366,-21.0544648650,1247.62
-38.7959045366,-21.0634480178,1228.928
-38.7959045366,-21.0724311707,1213.369
-38.7959045366,-21.0814143235,1182.324
-38.7959045366,-21.0903974763,1132.424
-38.7959045366,-21.0993806292,1084.101
-38.7959045366,-21.1083637820,1053.872
-38.7959045366,-21.1173469349,1032.473
-38.7959045366,-21.1263300877,1020.687
-38.7959045366,-21.1353132405,1015.566
-38.7959045366,-21.1442963934,1022.116
-38.7959045366,-21.1532795462,1054.783
-38.7959045366,-21.1622626991,1098.424
-38.7959045366,-21.1712458519,1094.965
-38.7959045366,-21.1802290048,1015.489
-38.7959045366,-21.1892121576,900.434
-38.7959045366,-21.1981953104,787.133
-38.7959045366,-21.2071784633,673.186
-38.7959045366,-21.2161616161,584.879
-38.7959045366,-21.2251447690,522.362
-38.7959045366,-21.2341279218,472.624
-38.7959045366,-21.2431110746,414.052
-38.7959045366,-21.2520942275,355.891
-38.7959045366,-21.2610773803,294.267
-38.7959045366,-21.2700605332,226.593
-38.7959045366,-21.2790436860,169.714
-38.7959045366,-21.2880268388,153.06
-38.7959045366,-21.2970099917,162.623
-38.7959045366,-21.3059931445,201.344
-38.7959045366,-21.3149762974,284.688
-38.7959045366,-21.3239594502,352.289
-38.7959045366,-21.3329426031,352.734
-38.7959045366,-21.3419257559,291.2
-38.7959045366,-21.3509089087,225.825
-38.7959045366,-21.3598920616,159.641
-38.7959045366,-21.3688752144,73.791
-38.7959045366,-21.3778583673,0.147
-38.7959045366,-21.3868415201,-41.034
-38.7959045366,-21.3958246729,-46.783
-38.7959045366,-21.4048078258,-20.514
-38.7959045366,-21.4137909786,12.143
-38.7959045366,-21.4227741315,32.002
-38.7959045366,-21.4317572843,61.099
-38.7959045366,-21.4407404371,118.781
-38.7959045366,-21.4497235900,179.542
-38.7959045366,-21.4587067428,188.665
-38.7959045366,-21.4676898957,160.156
-38.7959045366,-21.4766730485,147.112
-38.7959045366,-21.4856562014,132.893
-38.7959045366,-21.4946393542,90.759
-38.7959045366,-21.5036225070,12.566
-38.7959045366,-21.5126056599,-99.316
-38.7959045366,-21.5215888127,-212.685
-38.7959045366,-21.5305719656,-299.197
-38.7959045366,-21.5395551184,-359.172
-38.7959045366,-21.5485382712,-406.647
-38.7959045366,-21.5575214241,-454
-38.7959045366,-21.5665045769,-506.833
-38.7959045366,-21.5754877298,-553.609
-38.7959045366,-21.5844708826,-583.069
-38.7959045366,-21.5934540354,-597.317
-38.7959045366,-21.6024371883,-609.471
-38.7959045366,-21.6114203411,-629.557
-38.7959045366,-21.6204034940,-631.489
-38.7959045366,-21.6293866468,-606.332
-38.7959045366,-21.6383697997,-594.195
-38.7959045366,-21.6473529525,-600.5
-38.7959045366,-21.6563361053,-609.473
-38.7959045366,-21.6653192582,-616.114
-38.7959045366,-21.6743024110,-618.98
-38.7959045366,-21.6832855639,-624.873
-38.7959045366,-21.6922687167,-631.778
-38.7959045366,-21.7012518695,-634.322
-38.7959045366,-21.7102350224,-642.936
-38.7959045366,-21.7192181752,-658.023
-38.7959045366,-21.7282013281,-671.281
-38.7959045366,-21.7371844809,-681.425
-38.7959045366,-21.7461676337,-687.778
-38.7959045366,-21.7551507866,-686.875
-38.7959045366,-21.7641339394,-682.404
-38.7959045366,-21.7731170923,-676.709
-38.7959045366,-21.7821002451,-668.623
-38.7959045366,-21.7910833980,-657.317
-38.7959045366,-21.8000665508,-643.871
-38.7959045366,-21.8090497036,-628.191
-38.7959045366,-21.8180328565,-612.776
-38.7959045366,-21.8270160093,-600.261
-38.7959045366,-21.8359991622,-590.025
-38.7959045366,-21.8449823150,-583.011
-38.7959045366,-21.8539654678,-580.13
-38.7959045366,-21.8629486207,-581.376
-38.7959045366,-21.8719317735,-586.106
-38.7959045366,-21.8809149264,-596.996
-38.7959045366,-21.8898980792,-611.62
-38.7959045366,-21.8988812320,-629.531
-38.7959045366,-21.9078643849,-652.065
-38.7959045366,-21.9168475377,-672.159
-38.7959045366,-21.9258306906,-678.312
-38.7959045366,-21.9348138434,-663.468
-38.7959045366,-21.9437969963,-632.105
-38.7959045366,-21.9527801491,-604.716
-38.7959045366,-21.9617633019,-584.866
-38.7959045366,-21.9707464548,-564.261
-38.7959045366,-21.9797296076,-527.035
-38.7959045366,-21.9887127605,-469.123
-38.7959045366,-21.9976959133,-420.148
-38.7959045366,-22.0066790661,-369.406
-38.7959045366,-22.0156622190,-276.859
-38.7959045366,-22.0246453718,-151.332
-38.7959045366,-22.0336285247,-54.103
-38.7959045366,-22.0426116775,13.377
-38.7959045366,-22.0515948303,70.01
-38.7959045366,-22.0605779832,140.406
-38.7959045366,-22.0695611360,228.279
-38.7959045366,-22.0785442889,278.431
-38.7959045366,-22.0875274417,269.267
-38.7959045366,-22.0965105946,262.407
-38.7959045366,-22.1054937474,330.423
-38.7959045366,-22.1144769002,444.378
-38.7959045366,-22.1234600531,520.428
-38.7959045366,-22.1324432059,581.594
-38.7959045366,-22.1414263588,648.32
-38.7959045366,-22.1504095116,721.744
-38.7959045366,-22.1593926644,791.704
-38.7959045366,-22.1683758173,864.737
-38.7959045366,-22.1773589701,932.878
-38.7959045366,-22.1863421230,982.116
-38.7959045366,-22.1953252758,1008.006
-38.7959045366,-22.2043084286,1023.567
-38.7959045366,-22.2132915815,1048.096
-38.7959045366,-22.2222747343,1091.76
-38.7959045366,-22.2312578872,1161.596
-38.7959045366,-22.2402410400,1239.902
-38.7959045366,-22.2492241929,1301.411
-38.7959045366,-22.2582073457,1343.044
-38.7959045366,-22.2671904985,1380.221
-38.7959045366,-22.2761736514,1404.914
-38.7959045366,-22.2851568042,1409.654
-38.7959045366,-22.2941399571,1416.424
-38.7959045366,-22.3031231099,1429.311
-38.7959045366,-22.3121062627,1438.531
-38.7959045366,-22.3210894156,1432.854
-38.7959045366,-22.3300725684,1405.699
-38.7959045366,-22.3390557213,1367.622
-38.7959045366,-22.3480388741,1334.898
-38.7959045366,-22.3570220269,1312.128
-38.7959045366,-22.3660051798,1310.013
-38.7959045366,-22.3749883326,1321.51
-38.7959045366,-22.3839714855,1337.917
-38.7959045366,-22.3929546383,1336.529
-38.7959045366,-22.4019377912,1318.488
-38.7959045366,-22.4109209440,1314.484
-38.7959045366,-22.4199040968,1311.085
-38.7959045366,-22.4288872497,1289.365
-38.7959045366,-22.4378704025,1236.124
-38.7959045366,-22.4468535554,1179.455
-38.7959045366,-22.4558367082,1150.083
-38.7959045366,-22.4648198610,1136.09
-38.7959045366,-22.4738030139,1129.289
-38.7959045366,-22.4827861667,1122.499
-38.7959045366,-22.4917693196,1117.601
-38.7959045366,-22.5007524724,1110.122
-38.7959045366,-22.5097356252,1087.344
-38.7959045366,-22.5187187781,1053.05
-38.7959045366,-22.5277019309,1023.852
-38.7959045366,-22.5366850838,1005.246
-38.7959045366,-22.5456682366,996.691
-38.7959045366,-22.5546513895,997.039
-38.7959045366,-22.5636345423,1000.106
-38.7959045366,-22.5726176951,1005.728
-38.7959045366,-22.5816008480,1014.396
-38.7959045366,-22.5905840008,1019.7
-38.7959045366,-22.5995671537,1024.341
-38.7959045366,-22.6085503065,1034.07
-38.7959045366,-22.6175334593,1044.271
-38.7959045366,-22.6265166122,1058.469
-38.7959045366,-22.6354997650,1080.384
-38.7959045366,-22.6444829179,1094.637
-38.7959045366,-22.6534660707,1085.201
-38.7959045366,-22.6624492235,1073.812
-38.7959045366,-22.6714323764,1076.128
-38.7959045366,-22.6804155292,1084.634
-38.7959045366,-22.6893986821,1097.642
-38.7959045366,-22.6983818349,1115.068
-38.7959045366,-22.7073649878,1129.603
-38.7959045366,-22.7163481406,1139.072
-38.7959045366,-22.7253312934,1150.814
-38.7959045366,-22.7343144463,1163.808
-38.7959045366,-22.7432975991,1179.939
-38.7959045366,-22.7522807520,1200.89
-38.7959045366,-22.7612639048,1230.907
-38.7959045366,-22.7702470576,1259.808
-38.7959045366,-22.7792302105,1270.267
-38.7959045366,-22.7882133633,1241.757
-38.7959045366,-22.7971965162,1173.925
-38.7959045366,-22.8061796690,1096.306
-38.7959045366,-22.8151628218,1050.389
-38.7869213837,-20.7939534326,761.064
-38.7869213837,-20.8029365854,776.5
-38.7869213837,-20.8119197383,784.557
-38.7869213837,-20.8209028911,794.938
-38.7869213837,-20.8298860439,799.344
-38.7869213837,-20.8388691968,799.767
-38.7869213837,-20.8478523496,806.368
-38.7869213837,-20.8568355025,815.042
-38.7869213837,-20.8658186553,822.233
-38.7869213837,-20.8748018081,830.888
-38.7869213837,-20.8837849610,841.432
-38.7869213837,-20.8927681138,854.534
-38.7869213837,-20.9017512667,870.706
-38.7869213837,-20.9107344195,884.113
-38.7869213837,-20.9197175724,893
-38.7869213837,-20.9287007252,902.442
-38.7869213837,-20.9376838780,911.794
-38.7869213837,-20.9466670309,923.593
-38.7869213837,-20.9556501837,936.804
-38.7869213837,-20.9646333366,944.439
-38.7869213837,-20.9736164894,940.936
-38.7869213837,-20.9825996422,932.501
-38.7869213837,-20.9915827951,931.44
-38.7869213837,-21.0005659479,940.023
-38.7869213837,-21.0095491008,958.411
-38.7869213837,-21.0185322536,1003.782
-38.7869213837,-21.0275154065,1085.278
-38.7869213837,-21.0364985593,1176.423
-38.7869213837,-21.0454817121,1244.543
-38.7869213837,-21.0544648650,1254.561
-38.7869213837,-21.0634480178,1220.993
-38.7869213837,-21.0724311707,1179.981
-38.7869213837,-21.0814143235,1138.916
-38.7869213837,-21.0903974763,1100.359
-38.7869213837,-21.0993806292,1064.397
-38.7869213837,-21.1083637820,1041.974
-38.7869213837,-21.1173469349,1026.542
-38.7869213837,-21.1263300877,1021.886
-38.7869213837,-21.1353132405,1022.097
-38.7869213837,-21.1442963934,1027.146
-38.7869213837,-21.1532795462,1045.924
-38.7869213837,-21.1622626991,1068.133
-38.7869213837,-21.1712458519,1056.558
-38.7869213837,-21.1802290048,998.541
-38.7869213837,-21.1892121576,918.532
-38.7869213837,-21.1981953104,837.689
-38.7869213837,-21.2071784633,759.897
-38.7869213837,-21.2161616161,690.6
-38.7869213837,-21.2251447690,621.583
-38.7869213837,-21.2341279218,549.228
-38.7869213837,-21.2431110746,445.5
-38.7869213837,-21.2520942275,338.358
-38.7869213837,-21.2610773803,261.665
-38.7869213837,-21.2700605332,208.973
-38.7869213837,-21.2790436860,174.713
-38.7869213837,-21.2880268388,193.449
-38.7869213837,-21.2970099917,217.609
-38.7869213837,-21.3059931445,264.841
-38.7869213837,-21.3149762974,410.465
-38.7869213837,-21.3239594502,531.251
-38.7869213837,-21.3329426031,538.041
-38.7869213837,-21.3419257559,449.034
-38.7869213837,-21.3509089087,384.341
-38.7869213837,-21.3598920616,325.018
-38.7869213837,-21.3688752144,204.499
-38.7869213837,-21.3778583673,91.472
-38.7869213837,-21.3868415201,24.764
-38.7869213837,-21.3958246729,-2.169
-38.7869213837,-21.4048078258,4.794
-38.7869213837,-21.4137909786,26.87
-38.7869213837,-21.4227741315,52.335
-38.7869213837,-21.4317572843,85.986
-38.7869213837,-21.4407404371,131.096
-38.7869213837,-21.4497235900,177.814
-38.7869213837,-21.4587067428,199.389
-38.7869213837,-21.4676898957,189.329
-38.7869213837,-21.4766730485,164.135
-38.7869213837,-21.4856562014,125.007
-38.7869213837,-21.4946393542,68.1
-38.7869213837,-21.5036225070,-5.142
-38.7869213837,-21.5126056599,-99.075
-38.7869213837,-21.5215888127,-204.161
-38.7869213837,-21.5305719656,-293.25
-38.7869213837,-21.5395551184,-355.306
-38.7869213837,-21.5485382712,-403.162
-38.7869213837,-21.5575214241,-457.523
-38.7869213837,-21.5665045769,-514.364
-38.7869213837,-21.5754877298,-557.944
-38.7869213837,-21.5844708826,-582.712
-38.7869213837,-21.5934540354,-591.304
-38.7869213837,-21.6024371883,-594.532
-38.7869213837,-21.6114203411,-606.696
-38.7869213837,-21.6204034940,-598.032
-38.7869213837,-21.6293866468,-567.358
-38.7869213837,-21.6383697997,-567.431
-38.7869213837,-21.6473529525,-579.233
-38.7869213837,-21.6563361053,-591.202
-38.7869213837,-21.6653192582,-601.653
-38.7869213837,-21.6743024110,-608.515
-38.7869213837,-21.6832855639,-615.386
-38.7869213837,-21.6922687167,-623.125
-38.7869213837,-21.7012518695,-627.597
-38.7869213837,-21.7102350224,-635.029
-38.7869213837,-21.7192181752,-648.857
-38.7869213837,-21.7282013281,-660.829
-38.7869213837,-21.7371844809,-668.933
-38.7869213837,-21.7461676337,-671.505
-38.7869213837,-21.7551507866,-669.299
-38.7869213837,-21.7641339394,-663.198
-38.7869213837,-21.7731170923,-654.278
-38.7869213837,-21.7821002451,-642.033
-38.7869213837,-21.7910833980,-625.363
-38.7869213837,-21.8000665508,-604.925
-38.7869213837,-21.8090497036,-583.777
-38.7869213837,-21.8180328565,-566.262
-38.7869213837,-21.8270160093,-554.73
-38.7869213837,-21.8359991622,-547.694
-38.7869213837,-21.8449823150,-543.999
-38.7869213837,-21.8539654678,-544.26
-38.7869213837,-21.8629486207,-546.581
-38.7869213837,-21.8719317735,-553.252
-38.7869213837,-21.8809149264,-571.216
-38.7869213837,-21.8898980792,-589.902
-38.7869213837,-21.8988812320,-608.893
-38.7869213837,-21.9078643849,-640.746
-38.7869213837,-21.9168475377,-676.274
-38.7869213837,-21.9258306906,-689.279
-38.7869213837,-21.9348138434,-665.768
-38.7869213837,-21.9437969963,-611.143
-38.7869213837,-21.9527801491,-571.959
-38.7869213837,-21.9617633019,-552.42
-38.7869213837,-21.9707464548,-538.798
-38.7869213837,-21.9797296076,-500.296
-38.7869213837,-21.9887127605,-428.033
-38.7869213837,-21.9976959133,-370.291
-38.7869213837,-22.0066790661,-318.603
-38.7869213837,-22.0156622190,-225.729
-38.7869213837,-22.0246453718,-97.312
-38.7869213837,-22.0336285247,-0.021
-38.7869213837,-22.0426116775,69.363
-38.7869213837,-22.0515948303,139.017
-38.7869213837,-22.0605779832,218.814
-38.7869213837,-22.0695611360,303.126
-38.7869213837,-22.0785442889,358.027
-38.7869213837,-22.0875274417,371.923
-38.7869213837,-22.0965105946,384.035
-38.7869213837,-22.1054937474,444.185
-38.7869213837,-22.1144769002,546.944
-38.7869213837,-22.1234600531,636.079
-38.7869213837,-22.1324432059,711.195
-38.7869213837,-22.1414263588,785.952
-38.7869213837,-22.1504095116,863.263
-38.7869213837,-22.1593926644,933.662
-38.7869213837,-22.1683758173,1000.102
-38.7869213837,-22.1773589701,1059.998
-38.7869213837,-22.1863421230,1100.964
-38.7869213837,-22.1953252758,1122.308
-38.7869213837,-22.2043084286,1131.981
-38.7869213837,-22.2132915815,1149.154
-38.7869213837,-22.2222747343,1189.271
-38.7869213837,-22.2312578872,1253.502
-38.7869213837,-22.2402410400,1336.078
-38.7869213837,-22.2492241929,1399.017
-38.7869213837,-22.2582073457,1425.925
-38.7869213837,-22.2671904985,1432.43
-38.7869213837,-22.2761736514,1422.858
-38.7869213837,-22.2851568042,1411.228
-38.7869213837,-22.2941399571,1419.916
-38.7869213837,-22.3031231099,1425.48
-38.7869213837,-22.3121062627,1420.749
-38.7869213837,-22.3210894156,1404.132
-38.7869213837,-22.3300725684,1376.066
-38.7869213837,-22.3390557213,1343.062
-38.7869213837,-22.3480388741,1313.25
-38.7869213837,-22.3570220269,1289.032
-38.7869213837,-22.3660051798,1277.501
-38.7869213837,-22.3749883326,1281.662
-38.7869213837,-22.3839714855,1295.49
-38.7869213837,-22.3929546383,1294.603
-38.7869213837,-22.4019377912,1278.935
-38.7869213837,-22.4109209440,1268.478
-38.7869213837,-22.4199040968,1259.256
-38.7869213837,-22.4288872497,1234.88
-38.7869213837,-22.4378704025,1192.009
-38.7869213837,-22.4468535554,1153.952
-38.7869213837,-22.4558367082,1130.639
-38.7869213837,-22.4648198610,1114.174
-38.7869213837,-22.4738030139,1101.793
-38.7869213837,-22.4827861667,1089.914
-38.7869213837,-22.4917693196,1079.013
-38.7869213837,-22.5007524724,1066.876
-38.7869213837,-22.5097356252,1049.224
-38.7869213837,-22.5187187781,1026.209
-38.7869213837,-22.5277019309,1005.374
-38.7869213837,-22.5366850838,991.391
-38.7869213837,-22.5456682366,983.79
-38.7869213837,-22.5546513895,982.546
-38.7869213837,-22.5636345423,983.9
-38.7869213837,-22.5726176951,988.408
-38.7869213837,-22.5816008480,995.145
-38.7869213837,-22.5905840008,1001.925
-38.7869213837,-22.5995671537,1011.16
-38.7869213837,-22.6085503065,1023.344
-38.7869213837,-22.6175334593,1035.321
-38.7869213837,-22.6265166122,1051.686
-38.7869213837,-22.6354997650,1076.059
-38.7869213837,-22.6444829179,1090.296
-38.7869213837,-22.6534660707,1077.093
-38.7869213837,-22.6624492235,1066.495
-38.7869213837,-22.6714323764,1071.199
-38.7869213837,-22.6804155292,1080.756
-38.7869213837,-22.6893986821,1093.508
-38.7869213837,-22.6983818349,1103.243
-38.7869213837,-22.7073649878,1109.28
-38.7869213837,-22.7163481406,1119.759
-38.7869213837,-22.7253312934,1134.389
-38.7869213837,-22.7343144463,1148.788
-38.7869213837,-22.7432975991,1166.249
-38.7869213837,-22.7522807520,1186.07
-38.7869213837,-22.7612639048,1205.186
-38.7869213837,-22.7702470576,1231.619
-38.7869213837,-22.7792302105,1251.978
-38.7869213837,-22.7882133633,1242.953
-38.7869213837,-22.7971965162,1188.895
-38.7869213837,-22.8061796690,1092.267
-38.7869213837,-22.8151628218,1029.753
-38.7779382309,-20.7939534326,749.938
-38.7779382309,-20.8029365854,761.308
-38.7779382309,-20.8119197383,762.474
-38.7779382309,-20.8209028911,768.617
-38.7779382309,-20.8298860439,778.632
-38.7779382309,-20.8388691968,789.347
-38.7779382309,-20.8478523496,798.06
-38.7779382309,-20.8568355025,806.12
-38.7779382309,-20.8658186553,812.873
-38.7779382309,-20.8748018081,819.334
-38.7779382309,-20.8837849610,827.136
-38.7779382309,-20.8927681138,838.799
-38.7779382309,-20.9017512667,857.574
-38.7779382309,-20.9107344195,868.17
-38.7779382309,-20.9197175724,868.854
-38.7779382309,-20.9287007252,875.994
-38.7779382309,-20.9376838780,882.245
-38.7779382309,-20.9466670309,896.722
-38.7779382309,-20.9556501837,921.621
-38.7779382309,-20.9646333366,938.315
-38.7779382309,-20.9736164894,935.267
-38.7779382309,-20.9825996422,921.923
-38.7779382309,-20.9915827951,917.634
-38.7779382309,-21.0005659479,925.494
-38.7779382309,-21.0095491008,941.304
-38.7779382309,-21.0185322536,979.046
-38.7779382309,-21.0275154065,1048.419
-38.7779382309,-21.0364985593,1137.308
-38.7779382309,-21.0454817121,1198.39
-38.7779382309,-21.0544648650,1207.576
-38.7779382309,-21.0634480178,1187.611
-38.7779382309,-21.0724311707,1153.435
-38.7779382309,-21.0814143235,1118.14
-38.7779382309,-21.0903974763,1085.395
-38.7779382309,-21.0993806292,1058.912
-38.7779382309,-21.1083637820,1040.399
-38.7779382309,-21.1173469349,1029.466
-38.7779382309,-21.1263300877,1026.126
-38.7779382309,-21.1353132405,1027.518
-38.7779382309,-21.1442963934,1031.749
-38.7779382309,-21.1532795462,1041.441
-38.7779382309,-21.1622626991,1048.482
-38.7779382309,-21.1712458519,1038.138
-38.7779382309,-21.1802290048,1005.531
-38.7779382309,-21.1892121576,962.026
-38.7779382309,-21.1981953104,916.943
-38.7779382309,-21.2071784633,873.828
-38.7779382309,-21.2161616161,831.441
-38.7779382309,-21.2251447690,779.078
-38.7779382309,-21.2341279218,704.702
-38.7779382309,-21.2431110746,589.99
-38.7779382309,-21.2520942275,462.506
-38.7779382309,-21.2610773803,359.403
-38.7779382309,-21.2700605332,287.669
-38.7779382309,-21.2790436860,251.638
-38.7779382309,-21.2880268388,279.701
-38.7779382309,-21.2970099917,314.387
-38.7779382309,-21.3059931445,372.361
-38.7779382309,-21.3149762974,520.832
-38.7779382309,-21.3239594502,632.236
-38.7779382309,-21.3329426031,620.647
-38.7779382309,-21.3419257559,545.846
-38.7779382309,-21.3509089087,503.738
-38.7779382309,-21.3598920616,425.724
-38.7779382309,-21.3688752144,281.87
-38.7779382309,-21.3778583673,154.094
-38.7779382309,-21.3868415201,68.797
-38.7779382309,-21.3958246729,23.414
-38.7779382309,-21.4048078258,23.201
-38.7779382309,-21.4137909786,45.339
-38.7779382309,-21.4227741315,73.542
-38.7779382309,-21.4317572843,107.302
-38.7779382309,-21.4407404371,141.564
-38.7779382309,-21.4497235900,183.803
-38.7779382309,-21.4587067428,224.045
-38.7779382309,-21.4676898957,224.341
-38.7779382309,-21.4766730485,187.073
-38.7779382309,-21.4856562014,122.17
-38.7779382309,-21.4946393542,45.223
-38.7779382309,-21.5036225070,-21.056
-38.7779382309,-21.5126056599,-94.238
-38.7779382309,-21.5215888127,-185.992
-38.7779382309,-21.5305719656,-270.005
-38.7779382309,-21.5395551184,-333.786
-38.7779382309,-21.5485382712,-385.635
-38.7779382309,-21.5575214241,-446.593
-38.7779382309,-21.5665045769,-505.361
-38.7779382309,-21.5754877298,-545.831
-38.7779382309,-21.5844708826,-567.413
-38.7779382309,-21.5934540354,-574.531
-38.7779382309,-21.6024371883,-569.649
-38.7779382309,-21.6114203411,-563.645
-38.7779382309,-21.6204034940,-546.758
-38.7779382309,-21.6293866468,-530.052
-38.7779382309,-21.6383697997,-546.307
-38.7779382309,-21.6473529525,-567.111
-38.7779382309,-21.6563361053,-582.231
-38.7779382309,-21.6653192582,-591.976
-38.7779382309,-21.6743024110,-599.988
-38.7779382309,-21.6832855639,-606.626
-38.7779382309,-21.6922687167,-617.042
-38.7779382309,-21.7012518695,-619.519
-38.7779382309,-21.7102350224,-625.457
-38.7779382309,-21.7192181752,-640.598
-38.7779382309,-21.7282013281,-652.894
-38.7779382309,-21.7371844809,-658.791
-38.7779382309,-21.7461676337,-657.751
-38.7779382309,-21.7551507866,-653.109
-38.7779382309,-21.7641339394,-645.352
-38.7779382309,-21.7731170923,-633.818
-38.7779382309,-21.7821002451,-618.385
-38.7779382309,-21.7910833980,-596.846
-38.7779382309,-21.8000665508,-567.351
-38.7779382309,-21.8090497036,-538.032
-38.7779382309,-21.8180328565,-516.393
-38.7779382309,-21.8270160093,-507.328
-38.7779382309,-21.8359991622,-504.458
-38.7779382309,-21.8449823150,-501.543
-38.7779382309,-21.8539654678,-505.462
-38.7779382309,-21.8629486207,-509.721
-38.7779382309,-21.8719317735,-513.873
-38.7779382309,-21.8809149264,-541.308
-38.7779382309,-21.8898980792,-564.365
-38.7779382309,-21.8988812320,-580.895
-38.7779382309,-21.9078643849,-622.637
-38.7779382309,-21.9168475377,-676.618
-38.7779382309,-21.9258306906,-693.954
-38.7779382309,-21.9348138434,-658.057
-38.7779382309,-21.9437969963,-582.893
-38.7779382309,-21.9527801491,-532.021
-38.7779382309,-21.9617633019,-507.69
-38.7779382309,-21.9707464548,-494.081
-38.7779382309,-21.9797296076,-457.447
-38.7779382309,-21.9887127605,-386.96
-38.7779382309,-21.9976959133,-315.494
-38.7779382309,-22.0066790661,-246.693
-38.7779382309,-22.0156622190,-158.894
-38.7779382309,-22.0246453718,-55.134
-38.7779382309,-22.0336285247,35.177
-38.7779382309,-22.0426116775,113.682
-38.7779382309,-22.0515948303,197.396
-38.7779382309,-22.0605779832,288.757
-38.7779382309,-22.0695611360,375.935
-38.7779382309,-22.0785442889,443.165
-38.7779382309,-22.0875274417,486.364
-38.7779382309,-22.0965105946,525.901
-38.7779382309,-22.1054937474,591.987
-38.7779382309,-22.1144769002,681.608
-38.7779382309,-22.1234600531,767.418
-38.7779382309,-22.1324432059,842.355
-38.7779382309,-22.1414263588,922.722
-38.7779382309,-22.1504095116,1009.005
-38.7779382309,-22.1593926644,1076.353
-38.7779382309,-22.1683758173,1134.659
-38.7779382309,-22.1773589701,1192.788
-38.7779382309,-22.1863421230,1223.609
-38.7779382309,-22.1953252758,1234.722
-38.7779382309,-22.2043084286,1231.754
-38.7779382309,-22.2132915815,1236.159
-38.7779382309,-22.2222747343,1266.027
-38.7779382309,-22.2312578872,1309.13
-38.7779382309,-22.2402410400,1374.134
-38.7779382309,-22.2492241929,1442.128
-38.7779382309,-22.2582073457,1481.41
-38.7779382309,-22.2671904985,1470.862
-38.7779382309,-22.2761736514,1435.542
-38.7779382309,-22.2851568042,1413.578
-38.7779382309,-22.2941399571,1414.985
-38.7779382309,-22.3031231099,1410.331
-38.7779382309,-22.3121062627,1398.121
-38.7779382309,-22.3210894156,1375.679
-38.7779382309,-22.3300725684,1352.743
-38.7779382309,-22.3390557213,1330.631
-38.7779382309,-22.3480388741,1304.167
-38.7779382309,-22.3570220269,1281.818
-38.7779382309,-22.3660051798,1267.296
-38.7779382309,-22.3749883326,1263.319
-38.7779382309,-22.3839714855,1263.306
-38.7779382309,-22.3929546383,1256.545
-38.7779382309,-22.4019377912,1245.954
-38.7779382309,-22.4109209440,1235.656
-38.7779382309,-22.4199040968,1224.415
-38.7779382309,-22.4288872497,1192.401
-38.7779382309,-22.4378704025,1150.519
-38.7779382309,-22.4468535554,1126.875
-38.7779382309,-22.4558367082,1112.381
-38.7779382309,-22.4648198610,1095.523
-38.7779382309,-22.4738030139,1078.999
-38.7779382309,-22.4827861667,1061.073
-38.7779382309,-22.4917693196,1045.055
-38.7779382309,-22.5007524724,1030.046
-38.7779382309,-22.5097356252,1015.598
-38.7779382309,-22.5187187781,999.116
-38.7779382309,-22.5277019309,984.857
-38.7779382309,-22.5366850838,975.663
-38.7779382309,-22.5456682366,968.772
-38.7779382309,-22.5546513895,966.566
-38.7779382309,-22.5636345423,967.721
-38.7779382309,-22.5726176951,972.268
-38.7779382309,-22.5816008480,979.98
-38.7779382309,-22.5905840008,990.124
-38.7779382309,-22.5995671537,1002.066
-38.7779382309,-22.6085503065,1015.107
-38.7779382309,-22.6175334593,1026.568
-38.7779382309,-22.6265166122,1039.787
-38.7779382309,-22.6354997650,1056.656
-38.7779382309,-22.6444829179,1067.426
-38.7779382309,-22.6534660707,1064.191
-38.7779382309,-22.6624492235,1061.385
-38.7779382309,-22.6714323764,1066.065
-38.7779382309,-22.6804155292,1073.651
-38.7779382309,-22.6893986821,1082.41
-38.7779382309,-22.6983818349,1088.676
-38.7779382309,-22.7073649878,1094.56
-38.7779382309,-22.7163481406,1105.522
-38.7779382309,-22.7253312934,1122.797
-38.7779382309,-22.7343144463,1140.414
-38.7779382309,-22.7432975991,1164.077
-38.7779382309,-22.7522807520,1190.692
-38.7779382309,-22.7612639048,1201.986
-38.7779382309,-22.7702470576,1221.133
-38.7779382309,-22.7792302105,1236.263
