-39.2315874638,-22.1728673797,-1370.909
-39.2315874638,-22.2087999907,-1207.732
-39.2315874638,-22.2447326017,-911.141
-39.2315874638,-22.2806652127,-528.506
-39.2315874638,-22.3165978237,-26.157
-39.2315874638,-22.3525304347,95.266
-39.2315874638,-22.3884630457,146.635
-39.2315874638,-22.4243956567,225.012
-39.2315874638,-22.4603282677,314.323
-39.2315874638,-22.4962608787,355.96
-39.2315874638,-22.5321934897,505.298
-39.2315874638,-22.5681261007,680.094
-39.2315874638,-22.6040587117,803.957
-39.2315874638,-22.6399913227,1374.831
-39.2315874638,-22.6759239337,1559.239
-39.2315874638,-22.7118565447,1443.83
-39.2315874638,-22.7477891557,1342.914
-39.2315874638,-22.7837217667,1299.901
-39.2315874638,-22.8196543777,1348.224
-39.1956548528,-20.8074281617,1271.115
-39.1956548528,-20.8433607727,1442.505
-39.1956548528,-20.8792933837,1380.602
-39.1956548528,-20.9152259947,1343.443
-39.1956548528,-20.9511586057,1373.028
-39.1956548528,-20.9870912167,1184.672
-39.1956548528,-21.0230238277,851.162
-39.1956548528,-21.0589564387,980.07
-39.1956548528,-21.0948890497,701.227
-39.1956548528,-21.1308216607,419.015
-39.1956548528,-21.1667542717,253.558
-39.1956548528,-21.2026868827,-123.441
-39.1956548528,-21.2386194937,-276.763
-39.1956548528,-21.2745521047,-405.414
-39.1956548528,-21.3104847157,-789.573
-39.1956548528,-21.3464173267,-971.924
-39.1956548528,-21.3823499377,-1025.088
-39.1956548528,-21.4182825487,-1084.785
-39.1956548528,-21.4542151597,-1134.391
-39.1956548528,-21.4901477707,-1159.307
-39.1956548528,-21.5260803817,-1210.338
-39.1956548528,-21.5620129927,-1252.565
-39.1956548528,-21.5979456037,-1305.756
-39.1956548528,-21.6338782147,-1323.879
-39.1956548528,-21.6698108257,-1359.005
-39.1956548528,-21.7057434367,-1362.636
-39.1956548528,-21.7416760477,-1369.519
-39.1956548528,-21.7776086587,-1385.104
-39.1956548528,-21.8135412697,-1406.391
-39.1956548528,-21.8494738807,-1410.749
-39.1956548528,-21.8854064917,-1426.252
-39.1956548528,-21.9213391027,-1451.366
-39.1956548528,-21.9572717137,-1502.255
-39.1956548528,-21.9932043247,-1518.685
-39.1956548528,-22.0291369357,-1661.889
-39.1956548528,-22.0650695467,-1536.22
-39.1956548528,-22.1010021577,-1536.749
-39.1956548528,-22.1369347687,-1494.349
-39.1956548528,-22.1728673797,-1277.871
-39.1956548528,-22.2087999907,-991.213
-39.1956548528,-22.2447326017,-725.433
-39.1956548528,-22.2806652127,-356.633
-39.1956548528,-22.3165978237,131.819
-39.1956548528,-22.3525304347,209.032
-39.1956548528,-22.3884630457,273.555
-39.1956548528,-22.4243956567,396.525
-39.1956548528,-22.4603282677,557.782
-39.1956548528,-22.4962608787,665.162
-39.1956548528,-22.5321934897,777.627
-39.1956548528,-22.5681261007,909.369
-39.1956548528,-22.6040587117,1205.235
-39.1956548528,-22.6399913227,1510.509
-39.1956548528,-22.6759239337,1622.448
-39.1956548528,-22.7118565447,1535.643
-39.1956548528,-22.7477891557,1316.644
-39.1956548528,-22.7837217667,1306.883
-39.1956548528,-22.8196543777,1341.902
-39.1597222418,-20.8074281617,1188.926
-39.1597222418,-20.8433607727,1206.464
-39.1597222418,-20.8792933837,1209.984
-39.1597222418,-20.9152259947,1368.055
-39.1597222418,-20.9511586057,1431.14
-39.1597222418,-20.9870912167,1379.271
-39.1597222418,-21.0230238277,1460.856
-39.1597222418,-21.0589564387,1367.832
-39.1597222418,-21.0948890497,1265.786
-39.1597222418,-21.1308216607,873.29
-39.1597222418,-21.1667542717,387.737
-39.1597222418,-21.2026868827,-53.955
-39.1597222418,-21.2386194937,-226.617
-39.1597222418,-21.2745521047,-366.755
-39.1597222418,-21.3104847157,-774.009
-39.1597222418,-21.3464173267,-902.833
-39.1597222418,-21.3823499377,-970.45
-39.1597222418,-21.4182825487,-1039.93
-39.1597222418,-21.4542151597,-1089.436
-39.1597222418,-21.4901477707,-1126.812
-39.1597222418,-21.5260803817,-1177.692
-39.1597222418,-21.5620129927,-1221.514
-39.1597222418,-21.5979456037,-1250.207
-39.1597222418,-21.6338782147,-1292.323
-39.1597222418,-21.6698108257,-1306.317
-39.1597222418,-21.7057434367,-1310.414
-39.1597222418,-21.7416760477,-1311.102
-39.1597222418,-21.7776086587,-1317.992
-39.1597222418,-21.8135412697,-1334.278
-39.1597222418,-21.8494738807,-1354.506
-39.1597222418,-21.8854064917,-1375.382
-39.1597222418,-21.9213391027,-1390.823
-39.1597222418,-21.9572717137,-1421.449
-39.1597222418,-21.9932043247,-1452.947
-39.1597222418,-22.0291369357,-1517.926
-39.1597222418,-22.0650695467,-1502.231
-39.1597222418,-22.1010021577,-1498.026
-39.1597222418,-22.1369347687,-1465.912
-39.1597222418,-22.1728673797,-1164.581
-39.1597222418,-22.2087999907,-754.443
-39.1597222418,-22.2447326017,-386.002
-39.1597222418,-22.2806652127,-35.898
-39.1597222418,-22.3165978237,227.826
-39.1597222418,-22.3525304347,368.455
-39.1597222418,-22.3884630457,482.831
-39.1597222418,-22.4243956567,617.307
-39.1597222418,-22.4603282677,847.989
-39.1597222418,-22.4962608787,968.457
-39.1597222418,-22.5321934897,1098.721
-39.1597222418,-22.5681261007,1210.964
-39.1597222418,-22.6040587117,1496.129
-39.1597222418,-22.6399913227,1593.958
-39.1597222418,-22.6759239337,1586.275
-39.1597222418,-22.7118565447,1483.18
-39.1597222418,-22.7477891557,1314.297
-39.1597222418,-22.7837217667,1292.095
-39.1597222418,-22.8196543777,1319.934
-39.1237896308,-20.8074281617,1047.252
-39.1237896308,-20.8433607727,1094.258
-39.1237896308,-20.8792933837,1096.683
-39.1237896308,-20.9152259947,1212.267
-39.1237896308,-20.9511586057,1318.544
-39.1237896308,-20.9870912167,1346.329
-39.1237896308,-21.0230238277,1424.767
-39.1237896308,-21.0589564387,1481.266
-39.1237896308,-21.0948890497,1410.974
-39.1237896308,-21.1308216607,1077.489
-39.1237896308,-21.1667542717,451.115
-39.1237896308,-21.2026868827,24.907
-39.1237896308,-21.2386194937,-279.824
-39.1237896308,-21.2745521047,-433.811
-39.1237896308,-21.3104847157,-696.787
-39.1237896308,-21.3464173267,-829.029
-39.1237896308,-21.3823499377,-921.019
-39.1237896308,-21.4182825487,-996.727
-39.1237896308,-21.4542151597,-1029.102
-39.1237896308,-21.4901477707,-1078.881
-39.1237896308,-21.5260803817,-1127.318
-39.1237896308,-21.5620129927,-1172.51
-39.1237896308,-21.5979456037,-1211.074
-39.1237896308,-21.6338782147,-1238.119
-39.1237896308,-21.6698108257,-1248.714
-39.1237896308,-21.7057434367,-1244.097
-39.1237896308,-21.7416760477,-1224.832
-39.1237896308,-21.7776086587,-1231.512
-39.1237896308,-21.8135412697,-1245.011
-39.1237896308,-21.8494738807,-1281.036
-39.1237896308,-21.8854064917,-1329.248
-39.1237896308,-21.9213391027,-1316.267
-39.1237896308,-21.9572717137,-1351.336
-39.1237896308,-21.9932043247,-1402.469
-39.1237896308,-22.0291369357,-1450.419
-39.1237896308,-22.0650695467,-1449.468
-39.1237896308,-22.1010021577,-1393.456
-39.1237896308,-22.1369347687,-1244.318
-39.1237896308,-22.1728673797,-946.448
-39.1237896308,-22.2087999907,-533.352
-39.1237896308,-22.2447326017,-92.316
-39.1237896308,-22.2806652127,208.298
-39.1237896308,-22.3165978237,365.207
-39.1237896308,-22.3525304347,583.107
-39.1237896308,-22.3884630457,792.181
-39.1237896308,-22.4243956567,970.447
-39.1237896308,-22.4603282677,1091.673
-39.1237896308,-22.4962608787,1214.573
-39.1237896308,-22.5321934897,1361.021
-39.1237896308,-22.5681261007,1516.253
-39.1237896308,-22.6040587117,1588.921
-39.1237896308,-22.6399913227,1633.264
-39.1237896308,-22.6759239337,1618.774
-39.1237896308,-22.7118565447,1371.323
-39.1237896308,-22.7477891557,1280.76
-39.1237896308,-22.7837217667,1259.912
-39.1237896308,-22.8196543777,1309.136
-39.0878570198,-20.8074281617,1093.221
-39.0878570198,-20.8433607727,1165.06
-39.0878570198,-20.8792933837,1206.453
-39.0878570198,-20.9152259947,1271.178
-39.0878570198,-20.9511586057,1318.055
-39.0878570198,-20.9870912167,1300.506
-39.0878570198,-21.0230238277,1288.161
-39.0878570198,-21.0589564387,1389.679
-39.0878570198,-21.0948890497,1326.647
-39.0878570198,-21.1308216607,1033.164
-39.0878570198,-21.1667542717,392.087
-39.0878570198,-21.2026868827,-153.706
-39.0878570198,-21.2386194937,-414.698
-39.0878570198,-21.2745521047,-579.034
-39.0878570198,-21.3104847157,-687.523
-39.0878570198,-21.3464173267,-794.565
-39.0878570198,-21.3823499377,-890.861
-39.0878570198,-21.4182825487,-927.669
-39.0878570198,-21.4542151597,-969.332
-39.0878570198,-21.4901477707,-1024.837
-39.0878570198,-21.5260803817,-1076.833
-39.0878570198,-21.5620129927,-1127.996
-39.0878570198,-21.5979456037,-1177.597
-39.0878570198,-21.6338782147,-1195.822
-39.0878570198,-21.6698108257,-1197.063
-39.0878570198,-21.7057434367,-1193.487
-39.0878570198,-21.7416760477,-1160.159
-39.0878570198,-21.7776086587,-1161.436
-39.0878570198,-21.8135412697,-1186.673
-39.0878570198,-21.8494738807,-1218.797
-39.0878570198,-21.8854064917,-1258.202
-39.0878570198,-21.9213391027,-1277.705
-39.0878570198,-21.9572717137,-1302.511
-39.0878570198,-21.9932043247,-1340.772
-39.0878570198,-22.0291369357,-1381.495
-39.0878570198,-22.0650695467,-1364.554
-39.0878570198,-22.1010021577,-1258.724
-39.0878570198,-22.1369347687,-1080.214
-39.0878570198,-22.1728673797,-750.936
-39.0878570198,-22.2087999907,-417.479
-39.0878570198,-22.2447326017,82.046
-39.0878570198,-22.2806652127,360.303
-39.0878570198,-22.3165978237,438.494
-39.0878570198,-22.3525304347,683.307
-39.0878570198,-22.3884630457,921.35
-39.0878570198,-22.4243956567,1056.132
-39.0878570198,-22.4603282677,1164.332
-39.0878570198,-22.4962608787,1279.349
-39.0878570198,-22.5321934897,1445.786
-39.0878570198,-22.5681261007,1533.593
-39.0878570198,-22.6040587117,1520.783
-39.0878570198,-22.6399913227,1512.083
-39.0878570198,-22.6759239337,1471.88
-39.0878570198,-22.7118565447,1315.909
-39.0878570198,-22.7477891557,1256.704
-39.0878570198,-22.7837217667,1251.573
-39.0878570198,-22.8196543777,1308.574
-39.0519244088,-20.8074281617,1086.02
-39.0519244088,-20.8433607727,1238.275
-39.0519244088,-20.8792933837,1300.317
-39.0519244088,-20.9152259947,1310.305
-39.0519244088,-20.9511586057,1332
-39.0519244088,-20.9870912167,1304.816
-39.0519244088,-21.0230238277,1272.839
-39.0519244088,-21.0589564387,1343.663
-39.0519244088,-21.0948890497,1205.801
-39.0519244088,-21.1308216607,828.641
-39.0519244088,-21.1667542717,353.656
-39.0519244088,-21.2026868827,-108.043
-39.0519244088,-21.2386194937,-382.854
-39.0519244088,-21.2745521047,-471.532
-39.0519244088,-21.3104847157,-628.061
-39.0519244088,-21.3464173267,-766.734
-39.0519244088,-21.3823499377,-817.884
-39.0519244088,-21.4182825487,-854.765
-39.0519244088,-21.4542151597,-911.406
-39.0519244088,-21.4901477707,-963.632
-39.0519244088,-21.5260803817,-1022.992
-39.0519244088,-21.5620129927,-1089.211
-39.0519244088,-21.5979456037,-1125.979
-39.0519244088,-21.6338782147,-1137.33
-39.0519244088,-21.6698108257,-1125.794
-39.0519244088,-21.7057434367,-1083.653
-39.0519244088,-21.7416760477,-1067.014
-39.0519244088,-21.7776086587,-1093.638
-39.0519244088,-21.8135412697,-1128.282
-39.0519244088,-21.8494738807,-1160.599
-39.0519244088,-21.8854064917,-1198.192
-39.0519244088,-21.9213391027,-1222.513
-39.0519244088,-21.9572717137,-1244.106
-39.0519244088,-21.9932043247,-1266.181
-39.0519244088,-22.0291369357,-1323.013
-39.0519244088,-22.0650695467,-1326.977
-39.0519244088,-22.1010021577,-1090.239
-39.0519244088,-22.1369347687,-879.089
-39.0519244088,-22.1728673797,-503.242
-39.0519244088,-22.2087999907,-209.152
-39.0519244088,-22.2447326017,140.323
-39.0519244088,-22.2806652127,394.47
-39.0519244088,-22.3165978237,545.054
-39.0519244088,-22.3525304347,721.178
-39.0519244088,-22.3884630457,910.913
-39.0519244088,-22.4243956567,1051.349
-39.0519244088,-22.4603282677,1164.215
-39.0519244088,-22.4962608787,1278.083
-39.0519244088,-22.5321934897,1405.639
-39.0519244088,-22.5681261007,1456.395
-39.0519244088,-22.6040587117,1450.92
-39.0519244088,-22.6399913227,1411.328
-39.0519244088,-22.6759239337,1308.608
-39.0519244088,-22.7118565447,1234.01
-39.0519244088,-22.7477891557,1211.179
-39.0519244088,-22.7837217667,1243.625
-39.0519244088,-22.8196543777,1296.742
-39.0159917978,-20.8074281617,1102.514
-39.0159917978,-20.8433607727,1236.212
-39.0159917978,-20.8792933837,1261.106
-39.0159917978,-20.9152259947,1317.206
-39.0159917978,-20.9511586057,1363.524
-39.0159917978,-20.9870912167,1355.739
-39.0159917978,-21.0230238277,1258.748
-39.0159917978,-21.0589564387,1309.802
-39.0159917978,-21.0948890497,1145.853
-39.0159917978,-21.1308216607,674.261
-39.0159917978,-21.1667542717,243.193
-39.0159917978,-21.2026868827,-118.119
-39.0159917978,-21.2386194937,-290.54
-39.0159917978,-21.2745521047,-324.927
-39.0159917978,-21.3104847157,-501.848
-39.0159917978,-21.3464173267,-672.065
-39.0159917978,-21.3823499377,-730.894
-39.0159917978,-21.4182825487,-787.081
-39.0159917978,-21.4542151597,-851.103
-39.0159917978,-21.4901477707,-917.766
-39.0159917978,-21.5260803817,-980.689
-39.0159917978,-21.5620129927,-1031.277
-39.0159917978,-21.5979456037,-1059.492
-39.0159917978,-21.6338782147,-1071.732
-39.0159917978,-21.6698108257,-1048.803
-39.0159917978,-21.7057434367,-1049.257
-39.0159917978,-21.7416760477,-1051.016
-39.0159917978,-21.7776086587,-1051.134
-39.0159917978,-21.8135412697,-1074.576
-39.0159917978,-21.8494738807,-1110.881
-39.0159917978,-21.8854064917,-1146.595
-39.0159917978,-21.9213391027,-1151.204
-39.0159917978,-21.9572717137,-1175.378
-39.0159917978,-21.9932043247,-1157.739
-39.0159917978,-22.0291369357,-1195.594
-39.0159917978,-22.0650695467,-1069.87
-39.0159917978,-22.1010021577,-691.922
-39.0159917978,-22.1369347687,-464.289
-39.0159917978,-22.1728673797,-136.492
-39.0159917978,-22.2087999907,52.476
-39.0159917978,-22.2447326017,266.297
-39.0159917978,-22.2806652127,469.802
-39.0159917978,-22.3165978237,636.669
-39.0159917978,-22.3525304347,788.264
-39.0159917978,-22.3884630457,910.106
-39.0159917978,-22.4243956567,1034.808
-39.0159917978,-22.4603282677,1160.523
-39.0159917978,-22.4962608787,1296.962
-39.0159917978,-22.5321934897,1328.445
-39.0159917978,-22.5681261007,1337.05
-39.0159917978,-22.6040587117,1330.917
-39.0159917978,-22.6399913227,1295.961
-39.0159917978,-22.6759239337,1244.428
-39.0159917978,-22.7118565447,1200.078
-39.0159917978,-22.7477891557,1206.487
-39.0159917978,-22.7837217667,1287.566
-39.0159917978,-22.8196543777,1400.524
-38.9800591868,-20.8074281617,1116.611
-38.9800591868,-20.8433607727,1182.047
-38.9800591868,-20.8792933837,1232.381
-38.9800591868,-20.9152259947,1230.552
-38.9800591868,-20.9511586057,1351.143
-38.9800591868,-20.9870912167,1404.696
-38.9800591868,-21.0230238277,1297.595
-38.9800591868,-21.0589564387,1246.156
-38.9800591868,-21.0948890497,936.754
-38.9800591868,-21.1308216607,600.851
-38.9800591868,-21.1667542717,97.054
-38.9800591868,-21.2026868827,76.393
-38.9800591868,-21.2386194937,-99.953
-38.9800591868,-21.2745521047,-273.614
-38.9800591868,-21.3104847157,-512.573
-38.9800591868,-21.3464173267,-617.649
-38.9800591868,-21.3823499377,-648.503
-38.9800591868,-21.4182825487,-711.423
-38.9800591868,-21.4542151597,-785.522
-38.9800591868,-21.4901477707,-877.539
-38.9800591868,-21.5260803817,-952.722
-38.9800591868,-21.5620129927,-992.325
-38.9800591868,-21.5979456037,-995.497
-38.9800591868,-21.6338782147,-1008.238
-38.9800591868,-21.6698108257,-994.227
-38.9800591868,-21.7057434367,-989.566
-38.9800591868,-21.7416760477,-994.259
-38.9800591868,-21.7776086587,-997.302
-38.9800591868,-21.8135412697,-1010.803
-38.9800591868,-21.8494738807,-1026.391
-38.9800591868,-21.8854064917,-1049.104
-38.9800591868,-21.9213391027,-1070.638
-38.9800591868,-21.9572717137,-1078.506
-38.9800591868,-21.9932043247,-1049.063
-38.9800591868,-22.0291369357,-958.479
-38.9800591868,-22.0650695467,-730.357
-38.9800591868,-22.1010021577,-385.385
-38.9800591868,-22.1369347687,-247.164
-38.9800591868,-22.1728673797,57.02
-38.9800591868,-22.2087999907,173.757
-38.9800591868,-22.2447326017,418.896
-38.9800591868,-22.2806652127,574.232
-38.9800591868,-22.3165978237,772.7
-38.9800591868,-22.3525304347,877.063
-38.9800591868,-22.3884630457,933.131
-38.9800591868,-22.4243956567,1016.909
-38.9800591868,-22.4603282677,1195.036
-38.9800591868,-22.4962608787,1382.371
-38.9800591868,-22.5321934897,1390.058
-38.9800591868,-22.5681261007,1274.453
-38.9800591868,-22.6040587117,1245.316
-38.9800591868,-22.6399913227,1216.696
-38.9800591868,-22.6759239337,1193.657
-38.9800591868,-22.7118565447,1185.631
-38.9800591868,-22.7477891557,1225.501
-38.9800591868,-22.7837217667,1362.556
-38.9800591868,-22.8196543777,1583.914
-38.9441265758,-20.8074281617,1058.377
-38.9441265758,-20.8433607727,1138.961
-38.9441265758,-20.8792933837,1184.153
-38.9441265758,-20.9152259947,1191.86
-38.9441265758,-20.9511586057,1287.179
-38.9441265758,-20.9870912167,1319.412
-38.9441265758,-21.0230238277,1236.195
-38.9441265758,-21.0589564387,1134.216
-38.9441265758,-21.0948890497,946.772
-38.9441265758,-21.1308216607,862.947
-38.9441265758,-21.1667542717,532.209
-38.9441265758,-21.2026868827,326.974
-38.9441265758,-21.2386194937,-118.499
-38.9441265758,-21.2745521047,-273.598
-38.9441265758,-21.3104847157,-468.518
-38.9441265758,-21.3464173267,-500.289
-38.9441265758,-21.3823499377,-503.994
-38.9441265758,-21.4182825487,-595.179
-38.9441265758,-21.4542151597,-715.042
-38.9441265758,-21.4901477707,-822.544
-38.9441265758,-21.5260803817,-842.085
-38.9441265758,-21.5620129927,-871.559
-38.9441265758,-21.5979456037,-919.971
-38.9441265758,-21.6338782147,-930.462
-38.9441265758,-21.6698108257,-930.471
-38.9441265758,-21.7057434367,-912.361
-38.9441265758,-21.7416760477,-918.751
-38.9441265758,-21.7776086587,-922.923
-38.9441265758,-21.8135412697,-930.28
-38.9441265758,-21.8494738807,-932.482
-38.9441265758,-21.8854064917,-947.175
-38.9441265758,-21.9213391027,-985.98
-38.9441265758,-21.9572717137,-997.799
-38.9441265758,-21.9932043247,-941.727
-38.9441265758,-22.0291369357,-792.464
-38.9441265758,-22.0650695467,-555.186
-38.9441265758,-22.1010021577,-198.891
-38.9441265758,-22.1369347687,-68.205
-38.9441265758,-22.1728673797,100.558
-38.9441265758,-22.2087999907,207.203
-38.9441265758,-22.2447326017,431.653
-38.9441265758,-22.2806652127,735.31
-38.9441265758,-22.3165978237,898.864
-38.9441265758,-22.3525304347,926.842
-38.9441265758,-22.3884630457,968.68
-38.9441265758,-22.4243956567,1105.322
-38.9441265758,-22.4603282677,1381.399
-38.9441265758,-22.4962608787,1426.633
-38.9441265758,-22.5321934897,1342.206
-38.9441265758,-22.5681261007,1259.829
-38.9441265758,-22.6040587117,1231.578
-38.9441265758,-22.6399913227,1199.119
-38.9441265758,-22.6759239337,1179.958
-38.9441265758,-22.7118565447,1185.914
-38.9441265758,-22.7477891557,1233.612
-38.9441265758,-22.7837217667,1365.442
-38.9441265758,-22.8196543777,1559.35
-38.9081939648,-20.8074281617,973.492
-38.9081939648,-20.8433607727,1050.892
-38.9081939648,-20.8792933837,1098.569
-38.9081939648,-20.9152259947,1131.594
-38.9081939648,-20.9511586057,1175.444
-38.9081939648,-20.9870912167,1185.017
-38.9081939648,-21.0230238277,1128.85
-38.9081939648,-21.0589564387,1042.94
-38.9081939648,-21.0948890497,1076.823
-38.9081939648,-21.1308216607,1029.635
-38.9081939648,-21.1667542717,878.123
-38.9081939648,-21.2026868827,724.186
-38.9081939648,-21.2386194937,302.933
-38.9081939648,-21.2745521047,15.655
-38.9081939648,-21.3104847157,-201.451
-38.9081939648,-21.3464173267,-318.772
-38.9081939648,-21.3823499377,-340.947
-38.9081939648,-21.4182825487,-460.774
-38.9081939648,-21.4542151597,-599.416
-38.9081939648,-21.4901477707,-521.497
-38.9081939648,-21.5260803817,-559.807
-38.9081939648,-21.5620129927,-683.649
-38.9081939648,-21.5979456037,-837.793
-38.9081939648,-21.6338782147,-858.354
-38.9081939648,-21.6698108257,-850.734
-38.9081939648,-21.7057434367,-851.994
-38.9081939648,-21.7416760477,-860.492
-38.9081939648,-21.7776086587,-867.592
-38.9081939648,-21.8135412697,-828.917
-38.9081939648,-21.8494738807,-819.752
-38.9081939648,-21.8854064917,-864.052
-38.9081939648,-21.9213391027,-890.298
-38.9081939648,-21.9572717137,-928.577
-38.9081939648,-21.9932043247,-910.639
-38.9081939648,-22.0291369357,-755.48
-38.9081939648,-22.0650695467,-520.246
-38.9081939648,-22.1010021577,-157.064
-38.9081939648,-22.1369347687,18.998
-38.9081939648,-22.1728673797,190.676
-38.9081939648,-22.2087999907,380.968
-38.9081939648,-22.2447326017,594.418
-38.9081939648,-22.2806652127,849.619
-38.9081939648,-22.3165978237,1012.122
-38.9081939648,-22.3525304347,1040.2
-38.9081939648,-22.3884630457,1102.469
-38.9081939648,-22.4243956567,1281.112
-38.9081939648,-22.4603282677,1399.645
-38.9081939648,-22.4962608787,1437.03
-38.9081939648,-22.5321934897,1253.956
-38.9081939648,-22.5681261007,1240.18
-38.9081939648,-22.6040587117,1220.029
-38.9081939648,-22.6399913227,1188.105
-38.9081939648,-22.6759239337,1192.458
-38.9081939648,-22.7118565447,1182.041
-38.9081939648,-22.7477891557,1234.711
-38.9081939648,-22.7837217667,1356.856
-38.9081939648,-22.8196543777,1486.58
-38.8722613538,-20.8074281617,913.294
-38.8722613538,-20.8433607727,1002.806
-38.8722613538,-20.8792933837,1042.216
-38.8722613538,-20.9152259947,1057.394
-38.8722613538,-20.9511586057,1085.851
-38.8722613538,-20.9870912167,1167.817
-38.8722613538,-21.0230238277,1086.96
-38.8722613538,-21.0589564387,1044.375
-38.8722613538,-21.0948890497,1043.522
-38.8722613538,-21.1308216607,991.518
-38.8722613538,-21.1667542717,986.399
-38.8722613538,-21.2026868827,910.01
-38.8722613538,-21.2386194937,707.547
-38.8722613538,-21.2745521047,342.617
-38.8722613538,-21.3104847157,0.319
-38.8722613538,-21.3464173267,-176.954
-38.8722613538,-21.3823499377,-257.451
-38.8722613538,-21.4182825487,-252.24
-38.8722613538,-21.4542151597,-369.47
-38.8722613538,-21.4901477707,-228.284
-38.8722613538,-21.5260803817,-219.179
-38.8722613538,-21.5620129927,-482.245
-38.8722613538,-21.5979456037,-741.039
-38.8722613538,-21.6338782147,-768.828
-38.8722613538,-21.6698108257,-768.908
-38.8722613538,-21.7057434367,-774.571
-38.8722613538,-21.7416760477,-797.566
-38.8722613538,-21.7776086587,-811.469
-38.8722613538,-21.8135412697,-710.858
-38.8722613538,-21.8494738807,-700.638
-38.8722613538,-21.8854064917,-736.917
-38.8722613538,-21.9213391027,-793.418
-38.8722613538,-21.9572717137,-820.643
-38.8722613538,-21.9932043247,-831.267
-38.8722613538,-22.0291369357,-631.097
-38.8722613538,-22.0650695467,-396.575
-38.8722613538,-22.1010021577,-74.976
-38.8722613538,-22.1369347687,109.943
-38.8722613538,-22.1728673797,333.225
-38.8722613538,-22.2087999907,556.724
-38.8722613538,-22.2447326017,774.733
-38.8722613538,-22.2806652127,1024.87
-38.8722613538,-22.3165978237,1204.374
-38.8722613538,-22.3525304347,1304.995
-38.8722613538,-22.3884630457,1357.138
-38.8722613538,-22.4243956567,1393.564
-38.8722613538,-22.4603282677,1388.52
-38.8722613538,-22.4962608787,1376.874
-38.8722613538,-22.5321934897,1261.642
-38.8722613538,-22.5681261007,1226.897
-38.8722613538,-22.6040587117,1197.662
-38.8722613538,-22.6399913227,1229.063
-38.8722613538,-22.6759239337,1237.822
-38.8722613538,-22.7118565447,1210.951
-38.8722613538,-22.7477891557,1263.878
-38.8722613538,-22.7837217667,1387.584
-38.8722613538,-22.8196543777,1441.421
-38.8363287428,-20.8074281617,902.315
-38.8363287428,-20.8433607727,951.484
-38.8363287428,-20.8792933837,930.921
-38.8363287428,-20.9152259947,1038.274
-38.8363287428,-20.9511586057,1054.689
-38.8363287428,-20.9870912167,1066.111
-38.8363287428,-21.0230238277,1083.375
-38.8363287428,-21.0589564387,1218.197
-38.8363287428,-21.0948890497,1261.965
-38.8363287428,-21.1308216607,1087.844
-38.8363287428,-21.1667542717,1088.567
-38.8363287428,-21.2026868827,1076.11
-38.8363287428,-21.2386194937,1023.389
-38.8363287428,-21.2745521047,554.616
-38.8363287428,-21.3104847157,34.461
-38.8363287428,-21.3464173267,-104.762
-38.8363287428,-21.3823499377,-144.042
-38.8363287428,-21.4182825487,46.569
-38.8363287428,-21.4542151597,-94.505
-38.8363287428,-21.4901477707,54.897
-38.8363287428,-21.5260803817,61.362
-38.8363287428,-21.5620129927,-306.414
-38.8363287428,-21.5979456037,-597.885
-38.8363287428,-21.6338782147,-684.557
-38.8363287428,-21.6698108257,-694.378
-38.8363287428,-21.7057434367,-697.597
-38.8363287428,-21.7416760477,-723.154
-38.8363287428,-21.7776086587,-753.209
-38.8363287428,-21.8135412697,-698.858
-38.8363287428,-21.8494738807,-663.711
-38.8363287428,-21.8854064917,-668.027
-38.8363287428,-21.9213391027,-700.794
-38.8363287428,-21.9572717137,-692.318
-38.8363287428,-21.9932043247,-707.266
-38.8363287428,-22.0291369357,-261.972
-38.8363287428,-22.0650695467,-201.422
-38.8363287428,-22.1010021577,24.477
-38.8363287428,-22.1369347687,305.192
-38.8363287428,-22.1728673797,565.442
-38.8363287428,-22.2087999907,788.652
-38.8363287428,-22.2447326017,1039.156
-38.8363287428,-22.2806652127,1338.19
-38.8363287428,-22.3165978237,1529.63
-38.8363287428,-22.3525304347,1523.372
-38.8363287428,-22.3884630457,1522.662
-38.8363287428,-22.4243956567,1511.582
-38.8363287428,-22.4603282677,1409.879
-38.8363287428,-22.4962608787,1367.507
-38.8363287428,-22.5321934897,1238.174
-38.8363287428,-22.5681261007,1208.426
-38.8363287428,-22.6040587117,1180.323
-38.8363287428,-22.6399913227,1218.151
-38.8363287428,-22.6759239337,1228.285
-38.8363287428,-22.7118565447,1248.858
-38.8363287428,-22.7477891557,1279.172
-38.8363287428,-22.7837217667,1382.585
-38.8363287428,-22.8196543777,1368.607
-38.8003961318,-20.8074281617,844.454
-38.8003961318,-20.8433607727,870.813
-38.8003961318,-20.8792933837,891.43
-38.8003961318,-20.9152259947,1007.177
-38.8003961318,-20.9511586057,1037.833
-38.8003961318,-20.9870912167,1020.496
-38.8003961318,-21.0230238277,1112.177
-38.8003961318,-21.0589564387,1250.035
-38.8003961318,-21.0948890497,1341.607
-38.8003961318,-21.1308216607,1104.664
-38.8003961318,-21.1667542717,1123.518
-38.8003961318,-21.2026868827,1065.609
-38.8003961318,-21.2386194937,837.623
-38.8003961318,-21.2745521047,653.522
-38.8003961318,-21.3104847157,284.688
-38.8003961318,-21.3464173267,352.734
-38.8003961318,-21.3823499377,159.641
-38.8003961318,-21.4182825487,50.498
-38.8003961318,-21.4542151597,188.665
-38.8003961318,-21.4901477707,160.156
-38.8003961318,-21.5260803817,12.566
-38.8003961318,-21.5620129927,-313.97
-38.8003961318,-21.5979456037,-550.718
-38.8003961318,-21.6338782147,-594.195
-38.8003961318,-21.6698108257,-600.5
-38.8003961318,-21.7057434367,-624.873
-38.8003961318,-21.7416760477,-658.023
-38.8003961318,-21.7776086587,-668.623
-38.8003961318,-21.8135412697,-612.776
-38.8003961318,-21.8494738807,-580.13
-38.8003961318,-21.8854064917,-581.376
-38.8003961318,-21.9213391027,-629.531
-38.8003961318,-21.9572717137,-584.866
-38.8003961318,-21.9932043247,-420.148
-38.8003961318,-22.0291369357,-54.103
-38.8003961318,-22.0650695467,228.279
-38.8003961318,-22.1010021577,330.423
-38.8003961318,-22.1369347687,648.32
-38.8003961318,-22.1728673797,932.878
-38.8003961318,-22.2087999907,1048.096
-38.8003961318,-22.2447326017,1301.411
-38.8003961318,-22.2806652127,1409.654
-38.8003961318,-22.3165978237,1523.303
-38.8003961318,-22.3525304347,1510.081
-38.8003961318,-22.3884630457,1501.108
-38.8003961318,-22.4243956567,1476.193
-38.8003961318,-22.4603282677,1306.55
-38.8003961318,-22.4962608787,1289.483
-38.8003961318,-22.5321934897,1185.18
-38.8003961318,-22.5681261007,1083.516
-38.8003961318,-22.6040587117,1107.828
-38.8003961318,-22.6399913227,1094.637
-38.8003961318,-22.6759239337,1115.215
-38.8003961318,-22.7118565447,1195.714
-38.8003961318,-22.7477891557,1258.605
-38.8003961318,-22.7837217667,1299.661
-38.8003961318,-22.8196543777,1247.837
-38.7644635208,-20.8074281617,784.557
-38.7644635208,-20.8433607727,808.458
-38.7644635208,-20.8792933837,841.432
-38.7644635208,-20.9152259947,893
-38.7644635208,-20.9511586057,936.804
-38.7644635208,-20.9870912167,944.439
-38.7644635208,-21.0230238277,1085.278
-38.7644635208,-21.0589564387,1254.561
-38.7644635208,-21.0948890497,1179.981
-38.7644635208,-21.1308216607,1041.974
-38.7644635208,-21.1667542717,1068.133
-38.7644635208,-21.2026868827,1075.182
-38.7644635208,-21.2386194937,1092.846
-38.7644635208,-21.2745521047,746.661
-38.7644635208,-21.3104847157,769.681
-38.7644635208,-21.3464173267,862.905
-38.7644635208,-21.3823499377,788.781
-38.7644635208,-21.4182825487,172.915
-38.7644635208,-21.4542151597,313.7
-38.7644635208,-21.4901477707,362.805
-38.7644635208,-21.5260803817,-5.142
-38.7644635208,-21.5620129927,-290.216
-38.7644635208,-21.5979456037,-495.01
-38.7644635208,-21.6338782147,-466.11
-38.7644635208,-21.6698108257,-526.267
-38.7644635208,-21.7057434367,-591.018
-38.7644635208,-21.7416760477,-598.081
-38.7644635208,-21.7776086587,-579.809
-38.7644635208,-21.8135412697,-447.123
-38.7644635208,-21.8494738807,-422.869
-38.7644635208,-21.8854064917,-433.715
-38.7644635208,-21.9213391027,-533.966
-38.7644635208,-21.9572717137,-370.086
-38.7644635208,-21.9932043247,-184.896
-38.7644635208,-22.0291369357,94.944
-38.7644635208,-22.0650695467,514.413
-38.7644635208,-22.1010021577,802.93
-38.7644635208,-22.1369347687,1087.336
-38.7644635208,-22.1728673797,1305.218
-38.7644635208,-22.2087999907,1333.758
-38.7644635208,-22.2447326017,1442.128
-38.7644635208,-22.2806652127,1481.41
-38.7644635208,-22.3165978237,1425.48
-38.7644635208,-22.3525304347,1376.066
-38.7644635208,-22.3884630457,1295.49
-38.7644635208,-22.4243956567,1278.935
-38.7644635208,-22.4603282677,1192.009
-38.7644635208,-22.4962608787,1101.793
-38.7644635208,-22.5321934897,1049.224
-38.7644635208,-22.5681261007,988.408
-38.7644635208,-22.6040587117,1023.344
-38.7644635208,-22.6399913227,1090.296
-38.7644635208,-22.6759239337,1080.756
-38.7644635208,-22.7118565447,1119.759
-38.7644635208,-22.7477891557,1190.692
-38.7644635208,-22.7837217667,1251.978
-38.7644635208,-22.8196543777,1188.895
-38.7285309098,-20.8074281617,759.839
-38.7285309098,-20.8433607727,820.13
-38.7285309098,-20.8792933837,833.927
-38.7285309098,-20.9152259947,835.574
-38.7285309098,-20.9511586057,881.093
-38.7285309098,-20.9870912167,931.576
-38.7285309098,-21.0230238277,955.825
-38.7285309098,-21.0589564387,1103.103
-38.7285309098,-21.0948890497,1125.158
-38.7285309098,-21.1308216607,1122.446
-38.7285309098,-21.1667542717,1063.174
-38.7285309098,-21.2026868827,1099.967
-38.7285309098,-21.2386194937,1138.589
-38.7285309098,-21.2745521047,1022.744
-38.7285309098,-21.3104847157,1212.616
-38.7285309098,-21.3464173267,1295.754
-38.7285309098,-21.3823499377,1217.608
-38.7285309098,-21.4182825487,944.565
-38.7285309098,-21.4542151597,856.339
-38.7285309098,-21.4901477707,612.581
-38.7285309098,-21.5260803817,299.496
-38.7285309098,-21.5620129927,-85.524
-38.7285309098,-21.5979456037,-277.43
-38.7285309098,-21.6338782147,-286.482
-38.7285309098,-21.6698108257,-420.281
-38.7285309098,-21.7057434367,-190.289
-38.7285309098,-21.7416760477,-232.633
-38.7285309098,-21.7776086587,-430.685
-38.7285309098,-21.8135412697,-385.462
-38.7285309098,-21.8494738807,-288.977
-38.7285309098,-21.8854064917,-283.885
-38.7285309098,-21.9213391027,-285.192
-38.7285309098,-21.9572717137,76.036
-38.7285309098,-21.9932043247,40.658
-38.7285309098,-22.0291369357,225.918
-38.7285309098,-22.0650695467,524.681
-38.7285309098,-22.1010021577,777.779
-38.7285309098,-22.1369347687,1023.188
-38.7285309098,-22.1728673797,1234.645
-38.7285309098,-22.2087999907,1315.221
-38.7285309098,-22.2447326017,1391.322
-38.7285309098,-22.2806652127,1406.963
-38.7285309098,-22.3165978237,1369.196
-38.7285309098,-22.3525304347,1307.77
-38.7285309098,-22.3884630457,1241.71
-38.7285309098,-22.4243956567,1190.033
-38.7285309098,-22.4603282677,1116.131
-38.7285309098,-22.4962608787,1048.011
-38.7285309098,-22.5321934897,1003.74
-38.7285309098,-22.5681261007,965.92
-38.7285309098,-22.6040587117,999.205
-38.7285309098,-22.6399913227,1011.238
-38.7285309098,-22.6759239337,1055.696
-38.7285309098,-22.7118565447,1102.089
-38.7285309098,-22.7477891557,1129.867
-38.7285309098,-22.7837217667,1127.874
-38.7285309098,-22.8196543777,1021.518
-38.6925982988,-20.8074281617,719.03
-38.6925982988,-20.8433607727,746.755
-38.6925982988,-20.8792933837,777.572
-38.6925982988,-20.9152259947,805.419
-38.6925982988,-20.9511586057,870.018
-38.6925982988,-20.9870912167,886.323
-38.6925982988,-21.0230238277,905.964
-38.6925982988,-21.0589564387,1107.945
-38.6925982988,-21.0948890497,1115.031
-38.6925982988,-21.1308216607,1111.248
-38.6925982988,-21.1667542717,1039.925
-38.6925982988,-21.2026868827,961.65
-38.6925982988,-21.2386194937,986.92
-38.6925982988,-21.2745521047,1187.13
-38.6925982988,-21.3104847157,1272.969
-38.6925982988,-21.3464173267,1383.442
-38.6925982988,-21.3823499377,1310.14
-38.6925982988,-21.4182825487,1316.61
-38.6925982988,-21.4542151597,1366.319
-38.6925982988,-21.4901477707,1045.601
-38.6925982988,-21.5260803817,680.781
-38.6925982988,-21.5620129927,32.504
-38.6925982988,-21.5979456037,-129.549
-38.6925982988,-21.6338782147,-77.231
-38.6925982988,-21.6698108257,-281.2
-38.6925982988,-21.7057434367,-177.181
-38.6925982988,-21.7416760477,-137.117
-38.6925982988,-21.7776086587,-161.464
-38.6925982988,-21.8135412697,-191.523
-38.6925982988,-21.8494738807,-127.259
-38.6925982988,-21.8854064917,-9.67
-38.6925982988,-21.9213391027,285.699
-38.6925982988,-21.9572717137,650.41
-38.6925982988,-21.9932043247,586.202
-38.6925982988,-22.0291369357,377.961
-38.6925982988,-22.0650695467,251.192
-38.6925982988,-22.1010021577,72.661
-38.6925982988,-22.1369347687,324.267
-38.6925982988,-22.1728673797,828.749
-38.6925982988,-22.2087999907,1194.37
-38.6925982988,-22.2447326017,1405.439
-38.6925982988,-22.2806652127,1352.026
-38.6925982988,-22.3165978237,1299.124
-38.6925982988,-22.3525304347,1259.112
-38.6925982988,-22.3884630457,1192.096
-38.6925982988,-22.4243956567,1135.271
-38.6925982988,-22.4603282677,1091.151
-38.6925982988,-22.4962608787,1060.883
-38.6925982988,-22.5321934897,1037.399
-38.6925982988,-22.5681261007,976.206
-38.6925982988,-22.6040587117,969.17
-38.6925982988,-22.6399913227,997.242
-38.6925982988,-22.6759239337,1036.944
-38.6925982988,-22.7118565447,1056.623
-38.6925982988,-22.7477891557,1053.242
-38.6925982988,-22.7837217667,1010.025
-38.6925982988,-22.8196543777,947.44
-38.6566656878,-20.8074281617,721.068
-38.6566656878,-20.8433607727,747.563
-38.6566656878,-20.8792933837,769.511
-38.6566656878,-20.9152259947,802.409
-38.6566656878,-20.9511586057,879.342
-38.6566656878,-20.9870912167,872.432
-38.6566656878,-21.0230238277,834.017
-38.6566656878,-21.0589564387,853.794
-38.6566656878,-21.0948890497,856.368
-38.6566656878,-21.1308216607,848.267
-38.6566656878,-21.1667542717,814.06
-38.6566656878,-21.2026868827,790.472
-38.6566656878,-21.2386194937,797.677
-38.6566656878,-21.2745521047,968.75
-38.6566656878,-21.3104847157,1058.133
-38.6566656878,-21.3464173267,1178.837
-38.6566656878,-21.3823499377,1231.293
-38.6566656878,-21.4182825487,1351.141
-38.6566656878,-21.4542151597,1458.386
-38.6566656878,-21.4901477707,1120.312
-38.6566656878,-21.5260803817,584.986
-38.6566656878,-21.5620129927,96.186
-38.6566656878,-21.5979456037,120.134
-38.6566656878,-21.6338782147,146.605
-38.6566656878,-21.6698108257,-67.174
-38.6566656878,-21.7057434367,-191.544
-38.6566656878,-21.7416760477,105.357
-38.6566656878,-21.7776086587,-12.801
-38.6566656878,-21.8135412697,197.21
-38.6566656878,-21.8494738807,135.681
-38.6566656878,-21.8854064917,344.326
-38.6566656878,-21.9213391027,664.597
-38.6566656878,-21.9572717137,743.107
-38.6566656878,-21.9932043247,710.156
-38.6566656878,-22.0291369357,387.553
-38.6566656878,-22.0650695467,72.795
-38.6566656878,-22.1010021577,-47.475
-38.6566656878,-22.1369347687,107.513
-38.6566656878,-22.1728673797,552.915
-38.6566656878,-22.2087999907,977.213
-38.6566656878,-22.2447326017,1295.205
-38.6566656878,-22.2806652127,1296.597
-38.6566656878,-22.3165978237,1272.548
-38.6566656878,-22.3525304347,1219.208
-38.6566656878,-22.3884630457,1131.963
-38.6566656878,-22.4243956567,1077.315
-38.6566656878,-22.4603282677,1065.1
-38.6566656878,-22.4962608787,1073.962
-38.6566656878,-22.5321934897,1071.183
-38.6566656878,-22.5681261007,975.696
-38.6566656878,-22.6040587117,932.767
-38.6566656878,-22.6399913227,978.77
-38.6566656878,-22.6759239337,1030.627
-38.6566656878,-22.7118565447,1100.168
-38.6566656878,-22.7477891557,979.715
-38.6566656878,-22.7837217667,918.785
-38.6566656878,-22.8196543777,955.416
-38.6207330768,-20.8074281617,703.163
-38.6207330768,-20.8433607727,718.681
-38.6207330768,-20.8792933837,712.632
-38.6207330768,-20.9152259947,791.049
-38.6207330768,-20.9511586057,846.348
-38.6207330768,-20.9870912167,848.394
-38.6207330768,-21.0230238277,808.384
-38.6207330768,-21.0589564387,698.811
-38.6207330768,-21.0948890497,745.627
-38.6207330768,-21.1308216607,777.839
-38.6207330768,-21.1667542717,777.489
-38.6207330768,-21.2026868827,747.612
-38.6207330768,-21.2386194937,742.055
-38.6207330768,-21.2745521047,745.003
-38.6207330768,-21.3104847157,830.816
-38.6207330768,-21.3464173267,891.915
-38.6207330768,-21.3823499377,947.647
-38.6207330768,-21.4182825487,1164.855
-38.6207330768,-21.4542151597,1261.915
-38.6207330768,-21.4901477707,1092.202
-38.6207330768,-21.5260803817,759.11
-38.6207330768,-21.5620129927,465.381
-38.6207330768,-21.5979456037,330.887
-38.6207330768,-21.6338782147,255.643
-38.6207330768,-21.6698108257,106.673
-38.6207330768,-21.7057434367,88.699
-38.6207330768,-21.7416760477,234.328
-38.6207330768,-21.7776086587,181.143
-38.6207330768,-21.8135412697,335.882
-38.6207330768,-21.8494738807,222.09
-38.6207330768,-21.8854064917,870.742
-38.6207330768,-21.9213391027,1247.982
-38.6207330768,-21.9572717137,1275.084
-38.6207330768,-21.9932043247,1232.196
-38.6207330768,-22.0291369357,435.395
-38.6207330768,-22.0650695467,97.817
-38.6207330768,-22.1010021577,28.704
-38.6207330768,-22.1369347687,149.973
-38.6207330768,-22.1728673797,460.06
-38.6207330768,-22.2087999907,831.611
-38.6207330768,-22.2447326017,1219.184
-38.6207330768,-22.2806652127,1267.216
-38.6207330768,-22.3165978237,1256.924
-38.6207330768,-22.3525304347,1144.75
-38.6207330768,-22.3884630457,1129.638
-38.6207330768,-22.4243956567,980.996
-38.6207330768,-22.4603282677,989.777
-38.6207330768,-22.4962608787,1006.48
-38.6207330768,-22.5321934897,961.239
-38.6207330768,-22.5681261007,878.005
-38.6207330768,-22.6040587117,879.782
-38.6207330768,-22.6399913227,933.504
-38.6207330768,-22.6759239337,973.527
-38.6207330768,-22.7118565447,989.609
-38.6207330768,-22.7477891557,912.292
-38.6207330768,-22.7837217667,866.283
-38.6207330768,-22.8196543777,968.226
-38.5848004658,-20.8074281617,591.07
-38.5848004658,-20.8433607727,660.009
-38.5848004658,-20.8792933837,660.378
-38.5848004658,-20.9152259947,745.968
-38.5848004658,-20.9511586057,766.851
-38.5848004658,-20.9870912167,761.134
-38.5848004658,-21.0230238277,718.204
-38.5848004658,-21.0589564387,657.648
-38.5848004658,-21.0948890497,690.008
-38.5848004658,-21.1308216607,768.991
-38.5848004658,-21.1667542717,751.826
-38.5848004658,-21.2026868827,742.925
-38.5848004658,-21.2386194937,727.029
-38.5848004658,-21.2745521047,733.068
-38.5848004658,-21.3104847157,760.44
-38.5848004658,-21.3464173267,840.722
-38.5848004658,-21.3823499377,945.933
-38.5848004658,-21.4182825487,1126.27
-38.5848004658,-21.4542151597,1223.261
-38.5848004658,-21.4901477707,1262.685
-38.5848004658,-21.5260803817,967.244
-38.5848004658,-21.5620129927,702.137
-38.5848004658,-21.5979456037,557.643
-38.5848004658,-21.6338782147,510.187
-38.5848004658,-21.6698108257,264.982
-38.5848004658,-21.7057434367,255.178
-38.5848004658,-21.7416760477,396.721
-38.5848004658,-21.7776086587,396.564
-38.5848004658,-21.8135412697,561.888
-38.5848004658,-21.8494738807,770.535
-38.5848004658,-21.8854064917,1062.485
-38.5848004658,-21.9213391027,1276.386
-38.5848004658,-21.9572717137,1377.081
-38.5848004658,-21.9932043247,1307.65
-38.5848004658,-22.0291369357,566.569
-38.5848004658,-22.0650695467,141.413
-38.5848004658,-22.1010021577,95.995
-38.5848004658,-22.1369347687,173.464
-38.5848004658,-22.1728673797,362.034
-38.5848004658,-22.2087999907,846.569
-38.5848004658,-22.2447326017,1342.492
-38.5848004658,-22.2806652127,1254.376
-38.5848004658,-22.3165978237,1172.118
-38.5848004658,-22.3525304347,1121.583
-38.5848004658,-22.3884630457,1092.17
-38.5848004658,-22.4243956567,930.062
-38.5848004658,-22.4603282677,900.885
-38.5848004658,-22.4962608787,890.342
-38.5848004658,-22.5321934897,807.478
-38.5848004658,-22.5681261007,803.272
-38.5848004658,-22.6040587117,814.465
-38.5848004658,-22.6399913227,800.063
-38.5848004658,-22.6759239337,793.219
-38.5848004658,-22.7118565447,793.57
-38.5848004658,-22.7477891557,790.019
-38.5848004658,-22.7837217667,833.16
-38.5848004658,-22.8196543777,871.772
-38.5488678548,-20.8074281617,579.144
-38.5488678548,-20.8433607727,606.871
-38.5488678548,-20.8792933837,607.241
-38.5488678548,-20.9152259947,684.32
-38.5488678548,-20.9511586057,742.163
-38.5488678548,-20.9870912167,732.992
-38.5488678548,-21.0230238277,665.718
-38.5488678548,-21.0589564387,631.087
-38.5488678548,-21.0948890497,637.325
-38.5488678548,-21.1308216607,711.278
-38.5488678548,-21.1667542717,707.662
-38.5488678548,-21.2026868827,672.111
-38.5488678548,-21.2386194937,730.72
-38.5488678548,-21.2745521047,752.595
-38.5488678548,-21.3104847157,729.079
-38.5488678548,-21.3464173267,760.427
-38.5488678548,-21.3823499377,870.336
-38.5488678548,-21.4182825487,1018.709
-38.5488678548,-21.4542151597,1077.739
-38.5488678548,-21.4901477707,1199.298
-38.5488678548,-21.5260803817,1142.642
-38.5488678548,-21.5620129927,980.344
-38.5488678548,-21.5979456037,738.857
-38.5488678548,-21.6338782147,655.862
-38.5488678548,-21.6698108257,468.346
-38.5488678548,-21.7057434367,346.289
-38.5488678548,-21.7416760477,700.837
-38.5488678548,-21.7776086587,679.754
-38.5488678548,-21.8135412697,877.422
-38.5488678548,-21.8494738807,1214.637
-38.5488678548,-21.8854064917,1237.642
-38.5488678548,-21.9213391027,1254.224
-38.5488678548,-21.9572717137,1303.474
-38.5488678548,-21.9932043247,1319.968
-38.5488678548,-22.0291369357,825.63
-38.5488678548,-22.0650695467,400.734
-38.5488678548,-22.1010021577,297.719
-38.5488678548,-22.1369347687,344.224
-38.5488678548,-22.1728673797,688.928
-38.5488678548,-22.2087999907,1092.977
-38.5488678548,-22.2447326017,1385.553
-38.5488678548,-22.2806652127,1272.858
-38.5488678548,-22.3165978237,1087.946
-38.5488678548,-22.3525304347,992.762
-38.5488678548,-22.3884630457,948.927
-38.5488678548,-22.4243956567,903.438
-38.5488678548,-22.4603282677,875.714
-38.5488678548,-22.4962608787,842.361
-38.5488678548,-22.5321934897,812.075
-38.5488678548,-22.5681261007,775.105
-38.5488678548,-22.6040587117,738.027
-38.5488678548,-22.6399913227,727.195
-38.5488678548,-22.6759239337,771.418
-38.5488678548,-22.7118565447,778.839
-38.5488678548,-22.7477891557,751.198
-38.5488678548,-22.7837217667,779.693
-38.5488678548,-22.8196543777,796.419
-38.5129352438,-20.8074281617,554.763
-38.5129352438,-20.8433607727,563.742
-38.5129352438,-20.8792933837,600.623
-38.5129352438,-20.9152259947,642.609
-38.5129352438,-20.9511586057,660.533
-38.5129352438,-20.9870912167,660.672
-38.5129352438,-21.0230238277,612.905
-38.5129352438,-21.0589564387,604.973
-38.5129352438,-21.0948890497,614.799
-38.5129352438,-21.1308216607,717.081
-38.5129352438,-21.1667542717,632.992
-38.5129352438,-21.2026868827,657.675
-38.5129352438,-21.2386194937,722.362
-38.5129352438,-21.2745521047,747.44
-38.5129352438,-21.3104847157,684.766
-38.5129352438,-21.3464173267,709.184
-38.5129352438,-21.3823499377,738.027
-38.5129352438,-21.4182825487,814.235
-38.5129352438,-21.4542151597,898.878
-38.5129352438,-21.4901477707,1034.703
-38.5129352438,-21.5260803817,1075.025
-38.5129352438,-21.5620129927,1085.328
-38.5129352438,-21.5979456037,1111.968
-38.5129352438,-21.6338782147,996.25
-38.5129352438,-21.6698108257,516.739
-38.5129352438,-21.7057434367,617.602
-38.5129352438,-21.7416760477,766.422
-38.5129352438,-21.7776086587,904.402
-38.5129352438,-21.8135412697,1308.273
-38.5129352438,-21.8494738807,1304.592
-38.5129352438,-21.8854064917,1236.493
-38.5129352438,-21.9213391027,1239.844
-38.5129352438,-21.9572717137,1277.067
-38.5129352438,-21.9932043247,1299.013
-38.5129352438,-22.0291369357,1272.282
-38.5129352438,-22.0650695467,911.202
-38.5129352438,-22.1010021577,694.774
-38.5129352438,-22.1369347687,731.748
-38.5129352438,-22.1728673797,988.209
-38.5129352438,-22.2087999907,1344.636
-38.5129352438,-22.2447326017,1358.071
-38.5129352438,-22.2806652127,1268.362
-38.5129352438,-22.3165978237,1072.29
-38.5129352438,-22.3525304347,941.835
-38.5129352438,-22.3884630457,907.929
-38.5129352438,-22.4243956567,890.821
-38.5129352438,-22.4603282677,872.408
-38.5129352438,-22.4962608787,843.239
-38.5129352438,-22.5321934897,806.345
-38.5129352438,-22.5681261007,791.547
-38.5129352438,-22.6040587117,761.246
-38.5129352438,-22.6399913227,724.945
-38.5129352438,-22.6759239337,777.767
-38.5129352438,-22.7118565447,791.457
-38.5129352438,-22.7477891557,748.108
-38.5129352438,-22.7837217667,737.378
-38.5129352438,-22.8196543777,745.188
-38.4770026328,-20.8074281617,547.152
-38.4770026328,-20.8433607727,553.567
-38.4770026328,-20.8792933837,581.855
-38.4770026328,-20.9152259947,621.998
-38.4770026328,-20.9511586057,621.355
-38.4770026328,-20.9870912167,598.149
-38.4770026328,-21.0230238277,567.228
-38.4770026328,-21.0589564387,568.338
-38.4770026328,-21.0948890497,555.968
-38.4770026328,-21.1308216607,600.058
-38.4770026328,-21.1667542717,610.214
-38.4770026328,-21.2026868827,635.083
-38.4770026328,-21.2386194937,683.331
-38.4770026328,-21.2745521047,685.196
-38.4770026328,-21.3104847157,647.739
-38.4770026328,-21.3464173267,690.25
-38.4770026328,-21.3823499377,706.246
-38.4770026328,-21.4182825487,751.858
-38.4770026328,-21.4542151597,827.634
-38.4770026328,-21.4901477707,915.536
-38.4770026328,-21.5260803817,1092.138
-38.4770026328,-21.5620129927,1283.849
-38.4770026328,-21.5979456037,1297.18
-38.4770026328,-21.6338782147,914.003
-38.4770026328,-21.6698108257,702.719
-38.4770026328,-21.7057434367,631.956
-38.4770026328,-21.7416760477,884.16
-38.4770026328,-21.7776086587,1207.676
-38.4770026328,-21.8135412697,1295.351
-38.4770026328,-21.8494738807,1289.38
-38.4770026328,-21.8854064917,1217.819
-38.4770026328,-21.9213391027,1207.796
-38.4770026328,-21.9572717137,1248.109
-38.4770026328,-21.9932043247,1267.144
-38.4770026328,-22.0291369357,1287.524
-38.4770026328,-22.0650695467,1318.279
-38.4770026328,-22.1010021577,1068.806
-38.4770026328,-22.1369347687,1121.774
-38.4770026328,-22.1728673797,1278.08
-38.4770026328,-22.2087999907,1360.409
-38.4770026328,-22.2447326017,1327.144
-38.4770026328,-22.2806652127,1200.309
-38.4770026328,-22.3165978237,1058.379
-38.4770026328,-22.3525304347,941.983
-38.4770026328,-22.3884630457,919.641
-38.4770026328,-22.4243956567,887.691
-38.4770026328,-22.4603282677,841.208
-38.4770026328,-22.4962608787,813.699
-38.4770026328,-22.5321934897,823.284
-38.4770026328,-22.5681261007,821.729
-38.4770026328,-22.6040587117,778.328
-38.4770026328,-22.6399913227,719.13
