99.8338945199,44.4356000654,-4832.667
99.8338945199,44.3906843012,-4798.745
99.8338945199,44.3457685370,-4828.717
99.8338945199,44.3008527728,-4820.223
99.8338945199,44.2559370085,-4828.44
99.8338945199,44.2110212443,-4830.018
99.8338945199,44.1661054801,-4830.86
99.8338945199,44.1211897159,-4833.13
99.8338945199,44.0762739517,-4804.149
99.8338945199,44.0313581875,-4806.184
99.8338945199,43.9864424233,-4784.894
99.8338945199,43.9415266591,-4779.667
99.8338945199,43.8966108949,-4823.039
99.8338945199,43.8516951307,-4829.096
99.8338945199,43.8067793665,-4819.061
99.8338945199,43.7618636023,-4819.362
99.8338945199,43.7169478381,-4790.507
99.8338945199,43.6720320739,-4815.871
99.8338945199,43.6271163097,-4819.363
99.8338945199,43.5822005455,-4807.869
99.8338945199,43.5372847812,-4800.099
99.8338945199,43.4923690170,-4807.153
99.8338945199,43.4474532528,-4807.555
99.8338945199,43.4025374886,-4816.639
99.8338945199,43.3576217244,-4806.225
99.8338945199,43.3127059602,-4808.863
99.8338945199,43.2677901960,-4818.908
99.8338945199,43.2228744318,-4817.97
99.8338945199,43.1779586676,-4797.468
99.8338945199,43.1330429034,-4817.011
99.8338945199,43.0881271392,-4831.09
99.8338945199,43.0432113750,-4831.425
99.8338945199,42.9982956108,-4843.849
99.8338945199,42.9533798466,-4837.578
99.8338945199,42.9084640824,-4835.915
99.8338945199,42.8635483182,-4843.017
99.8338945199,42.8186325540,-4862.674
99.8338945199,42.7737167897,-4834.903
99.8338945199,42.7288010255,-4815.13
99.8338945199,42.6838852613,-4833.085
99.8338945199,42.6389694971,-4845.005
99.8338945199,42.5940537329,-4850.835
99.8338945199,42.5491379687,-4820.91
99.8338945199,42.5042222045,-4804.352
99.8338945199,42.4593064403,-4819.929
99.8338945199,42.4143906761,-4848.127
99.8338945199,42.3694749119,-4861.634
99.8338945199,42.3245591477,-4852.063
99.8338945199,42.2796433835,-4861.787
99.8338945199,42.2347276193,-4871.015
99.8338945199,42.1898118551,-4885.467
99.8338945199,42.1448960909,-4889.734
99.8338945199,42.0999803267,-4883.488
99.8338945199,42.0550645625,-4883.78
99.8338945199,42.0101487982,-4871.974
99.8788102841,51.9814484520,-4680.428
99.8788102841,51.9365326878,-4683.971
99.8788102841,51.8916169236,-4704.504
99.8788102841,51.8467011594,-4718.215
99.8788102841,51.8017853951,-4714.32
99.8788102841,51.7568696309,-4721.423
99.8788102841,51.7119538667,-4723.25
99.8788102841,51.6670381025,-4712.188
99.8788102841,51.6221223383,-4726.164
99.8788102841,51.5772065741,-4734.196
99.8788102841,51.5322908099,-4752.061
99.8788102841,51.4873750457,-4757.045
99.8788102841,51.4424592815,-4747.206
99.8788102841,51.3975435173,-4731.59
99.8788102841,51.3526277531,-4712.163
99.8788102841,51.3077119889,-4731.988
99.8788102841,51.2627962247,-4749.876
99.8788102841,51.2178804605,-4778.102
99.8788102841,51.1729646963,-4770.39
99.8788102841,51.1280489321,-4775.598
99.8788102841,51.0831331679,-4775.686
99.8788102841,51.0382174036,-4782.041
99.8788102841,50.9933016394,-4772.038
99.8788102841,50.9483858752,-4760.678
99.8788102841,50.9034701110,-4765.602
99.8788102841,50.8585543468,-4761.304
99.8788102841,50.8136385826,-4762.064
99.8788102841,50.7687228184,-4763.685
99.8788102841,50.7238070542,-4762.435
99.8788102841,50.6788912900,-4773.569
99.8788102841,50.6339755258,-4752.396
99.8788102841,50.5890597616,-4756.31
99.8788102841,50.5441439974,-4767.651
99.8788102841,50.4992282332,-4762.528
99.8788102841,50.4543124690,-4768.124
99.8788102841,50.4093967048,-4776.072
99.8788102841,50.3644809406,-4775.292
99.8788102841,50.3195651764,-4753.211
99.8788102841,50.2746494121,-4773.326
99.8788102841,50.2297336479,-4762.791
99.8788102841,50.1848178837,-4759.23
99.8788102841,50.1399021195,-4764.874
99.8788102841,50.0949863553,-4777.558
99.8788102841,50.0500705911,-4746.712
99.8788102841,50.0051548269,-4746.802
99.8788102841,49.9602390627,-4783.449
99.8788102841,49.9153232985,-4797.194
99.8788102841,49.8704075343,-4799.528
99.8788102841,49.8254917701,-4734.57
99.8788102841,49.7805760059,-4732.157
99.8788102841,49.7356602417,-4767.068
99.8788102841,49.6907444775,-4723.856
99.8788102841,49.6458287133,-4590.499
99.8788102841,49.6009129491,-4643.013
99.8788102841,49.5559971849,-4663.133
99.8788102841,49.5110814206,-4622.814
99.8788102841,49.4661656564,-4624.562
99.8788102841,49.4212498922,-4711.836
99.8788102841,49.3763341280,-4730.77
99.8788102841,49.3314183638,-4762.548
99.8788102841,49.2865025996,-4784.901
99.8788102841,49.2415868354,-4804.979
99.8788102841,49.1966710712,-4820.805
99.8788102841,49.1517553070,-4821.557
99.8788102841,49.1068395428,-4823.358
99.8788102841,49.0619237786,-4829.2
99.8788102841,49.0170080144,-4821.499
99.8788102841,48.9720922502,-4830.537
99.8788102841,48.9271764860,-4831.615
99.8788102841,48.8822607218,-4831.543
99.8788102841,48.8373449576,-4830.36
99.8788102841,48.7924291933,-4817.499
99.8788102841,48.7475134291,-4829.37
99.8788102841,48.7025976649,-4811.53
99.8788102841,48.6576819007,-4822.426
99.8788102841,48.6127661365,-4828.224
99.8788102841,48.5678503723,-4829.69
99.8788102841,48.5229346081,-4832.238
99.8788102841,48.4780188439,-4836.813
99.8788102841,48.4331030797,-4839.502
99.8788102841,48.3881873155,-4860.385
99.8788102841,48.3432715513,-4856.256
99.8788102841,48.2983557871,-4829.789
99.8788102841,48.2534400229,-4814.606
99.8788102841,48.2085242587,-4811.463
99.8788102841,48.1636084945,-4826.225
99.8788102841,48.1186927303,-4817.756
99.8788102841,48.0737769661,-4821.677
99.8788102841,48.0288612018,-4816.713
99.8788102841,47.9839454376,-4813.14
99.8788102841,47.9390296734,-4811.425
99.8788102841,47.8941139092,-4778.856
99.8788102841,47.8491981450,-4799.418
99.8788102841,47.8042823808,-4787.746
99.8788102841,47.7593666166,-4776.311
99.8788102841,47.7144508524,-4774.217
99.8788102841,47.6695350882,-4785.282
99.8788102841,47.6246193240,-4780.572
99.8788102841,47.5797035598,-4808.716
99.8788102841,47.5347877956,-4825.863
99.8788102841,47.4898720314,-4830
99.8788102841,47.4449562672,-4826.378
99.8788102841,47.4000405030,-4832.161
99.8788102841,47.3551247388,-4824.389
99.8788102841,47.3102089746,-4831.437
99.8788102841,47.2652932103,-4840.908
99.8788102841,47.2203774461,-4844.997
99.8788102841,47.1754616819,-4833.002
99.8788102841,47.1305459177,-4786.216
99.8788102841,47.0856301535,-4800.371
99.8788102841,47.0407143893,-4813.148
99.8788102841,46.9957986251,-4814.486
99.8788102841,46.9508828609,-4802.147
99.8788102841,46.9059670967,-4782.811
99.8788102841,46.8610513325,-4798.43
99.8788102841,46.8161355683,-4819.086
99.8788102841,46.7712198041,-4828.881
99.8788102841,46.7263040399,-4818.602
99.8788102841,46.6813882757,-4809.087
99.8788102841,46.6364725115,-4836.394
99.8788102841,46.5915567473,-4851.949
99.8788102841,46.5466409831,-4846.747
99.8788102841,46.5017252188,-4851.232
99.8788102841,46.4568094546,-4835.158
99.8788102841,46.4118936904,-4839.766
99.8788102841,46.3669779262,-4836.574
99.8788102841,46.3220621620,-4830.302
99.8788102841,46.2771463978,-4815.373
99.8788102841,46.2322306336,-4785.247
99.8788102841,46.1873148694,-4844.594
99.8788102841,46.1423991052,-4853.117
99.8788102841,46.0974833410,-4841.427
99.8788102841,46.0525675768,-4848.75
99.8788102841,46.0076518126,-4860.455
99.8788102841,45.9627360484,-4843.297
99.8788102841,45.9178202842,-4833.652
99.8788102841,45.8729045200,-4818.87
99.8788102841,45.8279887558,-4828.902
99.8788102841,45.7830729915,-4829.369
99.8788102841,45.7381572273,-4841.012
99.8788102841,45.6932414631,-4844.603
99.8788102841,45.6483256989,-4839.79
99.8788102841,45.6034099347,-4842.145
99.8788102841,45.5584941705,-4828.234
99.8788102841,45.5135784063,-4831.404
99.8788102841,45.4686626421,-4832.448
99.8788102841,45.4237468779,-4849.344
99.8788102841,45.3788311137,-4848.412
99.8788102841,45.3339153495,-4866.758
99.8788102841,45.2889995853,-4864.959
99.8788102841,45.2440838211,-4830.017
99.8788102841,45.1991680569,-4800.42
99.8788102841,45.1542522927,-4824.096
99.8788102841,45.1093365285,-4833.056
99.8788102841,45.0644207643,-4777.691
99.8788102841,45.0195050000,-4750.038
99.8788102841,44.9745892358,-4739.087
99.8788102841,44.9296734716,-4705.976
99.8788102841,44.8847577074,-4663.212
99.8788102841,44.8398419432,-4692.836
99.8788102841,44.7949261790,-4744.989
99.8788102841,44.7500104148,-4815.125
99.8788102841,44.7050946506,-4806.905
99.8788102841,44.6601788864,-4797.149
99.8788102841,44.6152631222,-4794.006
99.8788102841,44.5703473580,-4837.604
99.8788102841,44.5254315938,-4819.795
99.8788102841,44.4805158296,-4844.304
99.8788102841,44.4356000654,-4869.734
99.8788102841,44.3906843012,-4865.011
99.8788102841,44.3457685370,-4846.01
99.8788102841,44.3008527728,-4839
99.8788102841,44.2559370085,-4851.868
99.8788102841,44.2110212443,-4845.45
99.8788102841,44.1661054801,-4841.009
99.8788102841,44.1211897159,-4829.506
99.8788102841,44.0762739517,-4814.346
99.8788102841,44.0313581875,-4820.708
99.8788102841,43.9864424233,-4799.835
99.8788102841,43.9415266591,-4765.863
99.8788102841,43.8966108949,-4782.549
99.8788102841,43.8516951307,-4813.786
99.8788102841,43.8067793665,-4805.756
99.8788102841,43.7618636023,-4811.392
99.8788102841,43.7169478381,-4797.63
99.8788102841,43.6720320739,-4815.353
99.8788102841,43.6271163097,-4821.651
99.8788102841,43.5822005455,-4795.314
99.8788102841,43.5372847812,-4793.743
99.8788102841,43.4923690170,-4809.289
99.8788102841,43.4474532528,-4813.646
99.8788102841,43.4025374886,-4822.704
99.8788102841,43.3576217244,-4793.686
99.8788102841,43.3127059602,-4796.867
99.8788102841,43.2677901960,-4820.911
99.8788102841,43.2228744318,-4801.088
99.8788102841,43.1779586676,-4778.931
99.8788102841,43.1330429034,-4818.646
99.8788102841,43.0881271392,-4821.058
99.8788102841,43.0432113750,-4828.554
99.8788102841,42.9982956108,-4839.265
99.8788102841,42.9533798466,-4835.507
99.8788102841,42.9084640824,-4839.142
99.8788102841,42.8635483182,-4843.717
99.8788102841,42.8186325540,-4853.887
99.8788102841,42.7737167897,-4841.861
99.8788102841,42.7288010255,-4829.174
99.8788102841,42.6838852613,-4832.935
99.8788102841,42.6389694971,-4835.565
99.8788102841,42.5940537329,-4817.662
99.8788102841,42.5491379687,-4816.34
99.8788102841,42.5042222045,-4821.497
99.8788102841,42.4593064403,-4833.62
99.8788102841,42.4143906761,-4879.49
99.8788102841,42.3694749119,-4881.716
99.8788102841,42.3245591477,-4864.902
99.8788102841,42.2796433835,-4871.966
99.8788102841,42.2347276193,-4890.614
99.8788102841,42.1898118551,-4891.613
99.8788102841,42.1448960909,-4905.664
99.8788102841,42.0999803267,-4883.152
99.8788102841,42.0550645625,-4873.62
99.8788102841,42.0101487982,-4875.082
99.9237260483,51.9814484520,-4678.397
99.9237260483,51.9365326878,-4686.537
99.9237260483,51.8916169236,-4708.37
99.9237260483,51.8467011594,-4713.958
99.9237260483,51.8017853951,-4711.082
99.9237260483,51.7568696309,-4720.957
99.9237260483,51.7119538667,-4704.432
99.9237260483,51.6670381025,-4704.141
99.9237260483,51.6221223383,-4725.296
99.9237260483,51.5772065741,-4733.896
99.9237260483,51.5322908099,-4763.907
99.9237260483,51.4873750457,-4771.239
99.9237260483,51.4424592815,-4756.617
99.9237260483,51.3975435173,-4729.231
99.9237260483,51.3526277531,-4721.954
99.9237260483,51.3077119889,-4747.052
99.9237260483,51.2627962247,-4764.589
99.9237260483,51.2178804605,-4765.181
99.9237260483,51.1729646963,-4772.062
99.9237260483,51.1280489321,-4773.736
99.9237260483,51.0831331679,-4768.592
99.9237260483,51.0382174036,-4772.803
99.9237260483,50.9933016394,-4776.029
99.9237260483,50.9483858752,-4760.917
99.9237260483,50.9034701110,-4770.01
99.9237260483,50.8585543468,-4770.686
99.9237260483,50.8136385826,-4769.809
99.9237260483,50.7687228184,-4771.812
99.9237260483,50.7238070542,-4758.799
99.9237260483,50.6788912900,-4769.31
99.9237260483,50.6339755258,-4755.746
99.9237260483,50.5890597616,-4758.663
99.9237260483,50.5441439974,-4762.221
99.9237260483,50.4992282332,-4765.747
99.9237260483,50.4543124690,-4777.299
99.9237260483,50.4093967048,-4771.788
99.9237260483,50.3644809406,-4770.236
99.9237260483,50.3195651764,-4759.816
99.9237260483,50.2746494121,-4774.986
99.9237260483,50.2297336479,-4766.873
99.9237260483,50.1848178837,-4744.792
99.9237260483,50.1399021195,-4764.917
99.9237260483,50.0949863553,-4760
99.9237260483,50.0500705911,-4754.444
99.9237260483,50.0051548269,-4755.951
99.9237260483,49.9602390627,-4787.02
99.9237260483,49.9153232985,-4798.942
99.9237260483,49.8704075343,-4780.32
99.9237260483,49.8254917701,-4756.23
99.9237260483,49.7805760059,-4765.089
99.9237260483,49.7356602417,-4783.999
99.9237260483,49.6907444775,-4667.939
99.9237260483,49.6458287133,-4594.972
99.9237260483,49.6009129491,-4659.938
99.9237260483,49.5559971849,-4672.207
99.9237260483,49.5110814206,-4658.375
99.9237260483,49.4661656564,-4598.527
99.9237260483,49.4212498922,-4687.664
99.9237260483,49.3763341280,-4733.379
99.9237260483,49.3314183638,-4746.177
99.9237260483,49.2865025996,-4789.087
99.9237260483,49.2415868354,-4816.129
99.9237260483,49.1966710712,-4824.562
99.9237260483,49.1517553070,-4823.488
99.9237260483,49.1068395428,-4823.206
99.9237260483,49.0619237786,-4832.179
99.9237260483,49.0170080144,-4832.905
99.9237260483,48.9720922502,-4835.218
99.9237260483,48.9271764860,-4831.119
99.9237260483,48.8822607218,-4833.013
99.9237260483,48.8373449576,-4828.744
99.9237260483,48.7924291933,-4832.287
99.9237260483,48.7475134291,-4819.25
99.9237260483,48.7025976649,-4818.557
99.9237260483,48.6576819007,-4817.965
99.9237260483,48.6127661365,-4846.738
99.9237260483,48.5678503723,-4839.5
99.9237260483,48.5229346081,-4833.815
99.9237260483,48.4780188439,-4831.886
99.9237260483,48.4331030797,-4849.043
99.9237260483,48.3881873155,-4859.591
99.9237260483,48.3432715513,-4850.03
99.9237260483,48.2983557871,-4847.553
99.9237260483,48.2534400229,-4832.401
99.9237260483,48.2085242587,-4824.55
99.9237260483,48.1636084945,-4829.343
99.9237260483,48.1186927303,-4832.568
99.9237260483,48.0737769661,-4828.059
99.9237260483,48.0288612018,-4823.405
99.9237260483,47.9839454376,-4825.265
99.9237260483,47.9390296734,-4803.827
99.9237260483,47.8941139092,-4794.345
99.9237260483,47.8491981450,-4802.422
99.9237260483,47.8042823808,-4795.589
99.9237260483,47.7593666166,-4796.623
99.9237260483,47.7144508524,-4772.845
99.9237260483,47.6695350882,-4781.881
99.9237260483,47.6246193240,-4795.624
99.9237260483,47.5797035598,-4811.29
99.9237260483,47.5347877956,-4833.591
99.9237260483,47.4898720314,-4829.764
99.9237260483,47.4449562672,-4820.251
99.9237260483,47.4000405030,-4830.682
99.9237260483,47.3551247388,-4838.247
99.9237260483,47.3102089746,-4850.156
99.9237260483,47.2652932103,-4852.403
99.9237260483,47.2203774461,-4845.163
99.9237260483,47.1754616819,-4835.414
99.9237260483,47.1305459177,-4788.05
99.9237260483,47.0856301535,-4805.577
99.9237260483,47.0407143893,-4817.24
99.9237260483,46.9957986251,-4807.205
99.9237260483,46.9508828609,-4805.627
99.9237260483,46.9059670967,-4801.244
99.9237260483,46.8610513325,-4790.516
99.9237260483,46.8161355683,-4829.021
99.9237260483,46.7712198041,-4834.082
99.9237260483,46.7263040399,-4831.405
99.9237260483,46.6813882757,-4812.067
99.9237260483,46.6364725115,-4834.943
99.9237260483,46.5915567473,-4855.764
99.9237260483,46.5466409831,-4860.346
99.9237260483,46.5017252188,-4863.655
99.9237260483,46.4568094546,-4830.704
99.9237260483,46.4118936904,-4839.706
99.9237260483,46.3669779262,-4839.869
99.9237260483,46.3220621620,-4814.503
99.9237260483,46.2771463978,-4822.03
99.9237260483,46.2322306336,-4808.588
99.9237260483,46.1873148694,-4844.912
99.9237260483,46.1423991052,-4850.02
99.9237260483,46.0974833410,-4824.876
99.9237260483,46.0525675768,-4832.458
99.9237260483,46.0076518126,-4841.089
99.9237260483,45.9627360484,-4834.512
99.9237260483,45.9178202842,-4831.299
99.9237260483,45.8729045200,-4833.236
99.9237260483,45.8279887558,-4837.125
99.9237260483,45.7830729915,-4825.371
99.9237260483,45.7381572273,-4823.985
99.9237260483,45.6932414631,-4831.403
99.9237260483,45.6483256989,-4841.489
99.9237260483,45.6034099347,-4847.692
99.9237260483,45.5584941705,-4845.154
99.9237260483,45.5135784063,-4849.389
99.9237260483,45.4686626421,-4849.899
99.9237260483,45.4237468779,-4852.396
99.9237260483,45.3788311137,-4841.667
99.9237260483,45.3339153495,-4854.971
99.9237260483,45.2889995853,-4847.915
99.9237260483,45.2440838211,-4807.979
99.9237260483,45.1991680569,-4820.037
99.9237260483,45.1542522927,-4839.125
99.9237260483,45.1093365285,-4812.663
99.9237260483,45.0644207643,-4782.204
99.9237260483,45.0195050000,-4756.121
99.9237260483,44.9745892358,-4731.651
99.9237260483,44.9296734716,-4714.3
99.9237260483,44.8847577074,-4723.175
99.9237260483,44.8398419432,-4722.515
99.9237260483,44.7949261790,-4695.32
99.9237260483,44.7500104148,-4787.818
99.9237260483,44.7050946506,-4808.646
99.9237260483,44.6601788864,-4804.446
99.9237260483,44.6152631222,-4823.052
99.9237260483,44.5703473580,-4858.025
99.9237260483,44.5254315938,-4845.379
99.9237260483,44.4805158296,-4860.238
99.9237260483,44.4356000654,-4864.809
99.9237260483,44.3906843012,-4871.375
99.9237260483,44.3457685370,-4859.324
99.9237260483,44.3008527728,-4846.136
99.9237260483,44.2559370085,-4852.864
99.9237260483,44.2110212443,-4843.945
99.9237260483,44.1661054801,-4847.628
99.9237260483,44.1211897159,-4841.144
99.9237260483,44.0762739517,-4814.149
99.9237260483,44.0313581875,-4825.26
99.9237260483,43.9864424233,-4794.437
99.9237260483,43.9415266591,-4766.374
99.9237260483,43.8966108949,-4774.89
99.9237260483,43.8516951307,-4783.801
99.9237260483,43.8067793665,-4815.98
99.9237260483,43.7618636023,-4812.906
99.9237260483,43.7169478381,-4787.878
99.9237260483,43.6720320739,-4783.973
99.9237260483,43.6271163097,-4793.407
99.9237260483,43.5822005455,-4804.582
99.9237260483,43.5372847812,-4803.063
99.9237260483,43.4923690170,-4823.804
99.9237260483,43.4474532528,-4803.204
99.9237260483,43.4025374886,-4793.478
99.9237260483,43.3576217244,-4809.171
99.9237260483,43.3127059602,-4804.232
99.9237260483,43.2677901960,-4818.443
99.9237260483,43.2228744318,-4829.053
99.9237260483,43.1779586676,-4794.245
99.9237260483,43.1330429034,-4809.962
99.9237260483,43.0881271392,-4814.13
99.9237260483,43.0432113750,-4826.323
99.9237260483,42.9982956108,-4846.127
99.9237260483,42.9533798466,-4851.179
99.9237260483,42.9084640824,-4834.075
99.9237260483,42.8635483182,-4844.09
99.9237260483,42.8186325540,-4857.535
99.9237260483,42.7737167897,-4841.976
99.9237260483,42.7288010255,-4838.308
99.9237260483,42.6838852613,-4831.27
99.9237260483,42.6389694971,-4820.946
99.9237260483,42.5940537329,-4798.461
99.9237260483,42.5491379687,-4797.893
99.9237260483,42.5042222045,-4830.854
99.9237260483,42.4593064403,-4856.544
99.9237260483,42.4143906761,-4887.52
99.9237260483,42.3694749119,-4878.662
99.9237260483,42.3245591477,-4877.774
99.9237260483,42.2796433835,-4863.252
99.9237260483,42.2347276193,-4891.54
99.9237260483,42.1898118551,-4887.704
99.9237260483,42.1448960909,-4912.7
99.9237260483,42.0999803267,-4891.78
99.9237260483,42.0550645625,-4883.069
99.9237260483,42.0101487982,-4885.956
99.9686418125,51.9814484520,-4662.595
99.9686418125,51.9365326878,-4674.959
99.9686418125,51.8916169236,-4699.126
99.9686418125,51.8467011594,-4709.975
99.9686418125,51.8017853951,-4714.709
99.9686418125,51.7568696309,-4725.08
99.9686418125,51.7119538667,-4709.908
99.9686418125,51.6670381025,-4708.792
99.9686418125,51.6221223383,-4733.59
99.9686418125,51.5772065741,-4737.889
99.9686418125,51.5322908099,-4764.282
99.9686418125,51.4873750457,-4765.39
99.9686418125,51.4424592815,-4752.971
99.9686418125,51.3975435173,-4723.486
99.9686418125,51.3526277531,-4748.496
99.9686418125,51.3077119889,-4763.248
99.9686418125,51.2627962247,-4773.806
99.9686418125,51.2178804605,-4760.257
99.9686418125,51.1729646963,-4765.724
99.9686418125,51.1280489321,-4773.621
99.9686418125,51.0831331679,-4772.217
99.9686418125,51.0382174036,-4780.62
99.9686418125,50.9933016394,-4771.833
99.9686418125,50.9483858752,-4767.623
99.9686418125,50.9034701110,-4777.799
99.9686418125,50.8585543468,-4777.976
99.9686418125,50.8136385826,-4774.037
99.9686418125,50.7687228184,-4772.332
99.9686418125,50.7238070542,-4769.566
99.9686418125,50.6788912900,-4767.497
99.9686418125,50.6339755258,-4760.81
99.9686418125,50.5890597616,-4766.173
99.9686418125,50.5441439974,-4763.605
99.9686418125,50.4992282332,-4773.902
99.9686418125,50.4543124690,-4771.32
99.9686418125,50.4093967048,-4766.008
99.9686418125,50.3644809406,-4763.057
99.9686418125,50.3195651764,-4768.206
99.9686418125,50.2746494121,-4772.372
99.9686418125,50.2297336479,-4768.607
99.9686418125,50.1848178837,-4736.178
99.9686418125,50.1399021195,-4749.141
99.9686418125,50.0949863553,-4762.073
99.9686418125,50.0500705911,-4772.078
99.9686418125,50.0051548269,-4783.566
99.9686418125,49.9602390627,-4795.147
99.9686418125,49.9153232985,-4798.843
99.9686418125,49.8704075343,-4770.141
99.9686418125,49.8254917701,-4780.891
99.9686418125,49.7805760059,-4800.335
99.9686418125,49.7356602417,-4770.003
99.9686418125,49.6907444775,-4632.306
99.9686418125,49.6458287133,-4612.002
99.9686418125,49.6009129491,-4651.056
99.9686418125,49.5559971849,-4666.814
99.9686418125,49.5110814206,-4661.371
99.9686418125,49.4661656564,-4575.651
99.9686418125,49.4212498922,-4663.025
99.9686418125,49.3763341280,-4745.878
99.9686418125,49.3314183638,-4750.729
99.9686418125,49.2865025996,-4785.118
99.9686418125,49.2415868354,-4808.852
99.9686418125,49.1966710712,-4817.957
99.9686418125,49.1517553070,-4825.299
99.9686418125,49.1068395428,-4830.368
99.9686418125,49.0619237786,-4836.735
99.9686418125,49.0170080144,-4835.876
99.9686418125,48.9720922502,-4832.312
99.9686418125,48.9271764860,-4828.645
99.9686418125,48.8822607218,-4838.304
99.9686418125,48.8373449576,-4832.714
99.9686418125,48.7924291933,-4835.076
99.9686418125,48.7475134291,-4824.612
99.9686418125,48.7025976649,-4827.097
99.9686418125,48.6576819007,-4832.392
99.9686418125,48.6127661365,-4841.769
99.9686418125,48.5678503723,-4844.211
99.9686418125,48.5229346081,-4841.741
99.9686418125,48.4780188439,-4835.894
99.9686418125,48.4331030797,-4841.985
99.9686418125,48.3881873155,-4838.226
99.9686418125,48.3432715513,-4829.26
99.9686418125,48.2983557871,-4837.915
99.9686418125,48.2534400229,-4843.974
99.9686418125,48.2085242587,-4835.247
99.9686418125,48.1636084945,-4846.256
99.9686418125,48.1186927303,-4841.494
99.9686418125,48.0737769661,-4837.844
99.9686418125,48.0288612018,-4826.676
99.9686418125,47.9839454376,-4815.063
99.9686418125,47.9390296734,-4810.489
99.9686418125,47.8941139092,-4794.556
99.9686418125,47.8491981450,-4805.108
99.9686418125,47.8042823808,-4805.678
99.9686418125,47.7593666166,-4804.387
99.9686418125,47.7144508524,-4788.807
99.9686418125,47.6695350882,-4793.229
99.9686418125,47.6246193240,-4801.808
99.9686418125,47.5797035598,-4820.175
99.9686418125,47.5347877956,-4830.899
99.9686418125,47.4898720314,-4830.676
99.9686418125,47.4449562672,-4828.193
99.9686418125,47.4000405030,-4832.974
99.9686418125,47.3551247388,-4826.518
99.9686418125,47.3102089746,-4851.164
99.9686418125,47.2652932103,-4848.167
99.9686418125,47.2203774461,-4835.224
99.9686418125,47.1754616819,-4833.441
99.9686418125,47.1305459177,-4806.686
99.9686418125,47.0856301535,-4822.345
99.9686418125,47.0407143893,-4822.401
99.9686418125,46.9957986251,-4813.138
99.9686418125,46.9508828609,-4817.59
99.9686418125,46.9059670967,-4811.988
99.9686418125,46.8610513325,-4793.235
99.9686418125,46.8161355683,-4829.23
99.9686418125,46.7712198041,-4817.876
99.9686418125,46.7263040399,-4814.343
99.9686418125,46.6813882757,-4808.969
99.9686418125,46.6364725115,-4830.261
99.9686418125,46.5915567473,-4848.21
99.9686418125,46.5466409831,-4858.966
99.9686418125,46.5017252188,-4869.235
99.9686418125,46.4568094546,-4838.168
99.9686418125,46.4118936904,-4849.729
99.9686418125,46.3669779262,-4859.896
99.9686418125,46.3220621620,-4862.211
99.9686418125,46.2771463978,-4859.237
99.9686418125,46.2322306336,-4834.755
99.9686418125,46.1873148694,-4843.198
99.9686418125,46.1423991052,-4855.5
99.9686418125,46.0974833410,-4811.172
99.9686418125,46.0525675768,-4809.405
99.9686418125,46.0076518126,-4813.53
99.9686418125,45.9627360484,-4827.279
99.9686418125,45.9178202842,-4828.912
99.9686418125,45.8729045200,-4844.889
99.9686418125,45.8279887558,-4823.47
99.9686418125,45.7830729915,-4817.073
99.9686418125,45.7381572273,-4826.194
99.9686418125,45.6932414631,-4811.119
99.9686418125,45.6483256989,-4820.197
99.9686418125,45.6034099347,-4835.274
99.9686418125,45.5584941705,-4825.797
99.9686418125,45.5135784063,-4837.616
99.9686418125,45.4686626421,-4845.491
99.9686418125,45.4237468779,-4844.067
99.9686418125,45.3788311137,-4840.257
99.9686418125,45.3339153495,-4845.577
99.9686418125,45.2889995853,-4853.332
99.9686418125,45.2440838211,-4853.484
99.9686418125,45.1991680569,-4844.761
99.9686418125,45.1542522927,-4826.678
99.9686418125,45.1093365285,-4818.683
99.9686418125,45.0644207643,-4791.166
99.9686418125,45.0195050000,-4778.186
99.9686418125,44.9745892358,-4760.466
99.9686418125,44.9296734716,-4717.526
99.9686418125,44.8847577074,-4745.508
99.9686418125,44.8398419432,-4723.167
99.9686418125,44.7949261790,-4656.921
99.9686418125,44.7500104148,-4782.532
99.9686418125,44.7050946506,-4803.246
99.9686418125,44.6601788864,-4802.658
99.9686418125,44.6152631222,-4848.747
99.9686418125,44.5703473580,-4851.057
99.9686418125,44.5254315938,-4846.264
99.9686418125,44.4805158296,-4857.552
99.9686418125,44.4356000654,-4859.313
99.9686418125,44.3906843012,-4862.258
99.9686418125,44.3457685370,-4850.033
99.9686418125,44.3008527728,-4848.502
99.9686418125,44.2559370085,-4856.924
99.9686418125,44.2110212443,-4851.86
99.9686418125,44.1661054801,-4847.932
99.9686418125,44.1211897159,-4833.286
99.9686418125,44.0762739517,-4806.601
99.9686418125,44.0313581875,-4829.198
99.9686418125,43.9864424233,-4807.224
99.9686418125,43.9415266591,-4777.557
99.9686418125,43.8966108949,-4792.237
99.9686418125,43.8516951307,-4788.363
99.9686418125,43.8067793665,-4797.878
99.9686418125,43.7618636023,-4799.461
99.9686418125,43.7169478381,-4785.793
99.9686418125,43.6720320739,-4782.681
99.9686418125,43.6271163097,-4785.093
99.9686418125,43.5822005455,-4787.763
99.9686418125,43.5372847812,-4807.771
99.9686418125,43.4923690170,-4836.432
99.9686418125,43.4474532528,-4806.275
99.9686418125,43.4025374886,-4800.199
99.9686418125,43.3576217244,-4822.413
99.9686418125,43.3127059602,-4826.897
99.9686418125,43.2677901960,-4810.279
99.9686418125,43.2228744318,-4823.643
99.9686418125,43.1779586676,-4807.299
99.9686418125,43.1330429034,-4786.869
99.9686418125,43.0881271392,-4818.219
99.9686418125,43.0432113750,-4841.629
99.9686418125,42.9982956108,-4849.442
99.9686418125,42.9533798466,-4848.732
99.9686418125,42.9084640824,-4824.589
99.9686418125,42.8635483182,-4829.644
99.9686418125,42.8186325540,-4845.762
99.9686418125,42.7737167897,-4847.692
99.9686418125,42.7288010255,-4836.409
99.9686418125,42.6838852613,-4818.353
99.9686418125,42.6389694971,-4814.159
99.9686418125,42.5940537329,-4813.166
99.9686418125,42.5491379687,-4819.901
99.9686418125,42.5042222045,-4841.032
99.9686418125,42.4593064403,-4854.103
99.9686418125,42.4143906761,-4875.264
99.9686418125,42.3694749119,-4882.008
99.9686418125,42.3245591477,-4891.284
99.9686418125,42.2796433835,-4879.688
99.9686418125,42.2347276193,-4876.349
99.9686418125,42.1898118551,-4879.458
99.9686418125,42.1448960909,-4891.063
99.9686418125,42.0999803267,-4896.189
99.9686418125,42.0550645625,-4877.738
99.9686418125,42.0101487982,-4868.297
100.0135575767,51.9814484520,-4601.36
100.0135575767,51.9365326878,-4641.661
100.0135575767,51.8916169236,-4690.319
100.0135575767,51.8467011594,-4714.061
100.0135575767,51.8017853951,-4726.442
100.0135575767,51.7568696309,-4726.067
100.0135575767,51.7119538667,-4722.626
100.0135575767,51.6670381025,-4720.853
100.0135575767,51.6221223383,-4733.031
100.0135575767,51.5772065741,-4743.202
100.0135575767,51.5322908099,-4760.375
100.0135575767,51.4873750457,-4749.906
100.0135575767,51.4424592815,-4743.547
100.0135575767,51.3975435173,-4739.738
100.0135575767,51.3526277531,-4774.11
100.0135575767,51.3077119889,-4779.948
100.0135575767,51.2627962247,-4778.002
100.0135575767,51.2178804605,-4775.192
100.0135575767,51.1729646963,-4769.194
100.0135575767,51.1280489321,-4773.253
100.0135575767,51.0831331679,-4777.96
100.0135575767,51.0382174036,-4774.879
100.0135575767,50.9933016394,-4773.461
100.0135575767,50.9483858752,-4772
100.0135575767,50.9034701110,-4774.264
100.0135575767,50.8585543468,-4774.824
100.0135575767,50.8136385826,-4774.549
100.0135575767,50.7687228184,-4775.697
100.0135575767,50.7238070542,-4776.288
100.0135575767,50.6788912900,-4772.337
100.0135575767,50.6339755258,-4762.643
100.0135575767,50.5890597616,-4782.154
100.0135575767,50.5441439974,-4771.126
100.0135575767,50.4992282332,-4755.644
100.0135575767,50.4543124690,-4773.468
100.0135575767,50.4093967048,-4770.796
100.0135575767,50.3644809406,-4759.146
100.0135575767,50.3195651764,-4769.823
100.0135575767,50.2746494121,-4767.574
100.0135575767,50.2297336479,-4755.408
100.0135575767,50.1848178837,-4728.334
100.0135575767,50.1399021195,-4753.94
100.0135575767,50.0949863553,-4781.317
100.0135575767,50.0500705911,-4780.273
100.0135575767,50.0051548269,-4784.629
100.0135575767,49.9602390627,-4797.935
100.0135575767,49.9153232985,-4760.48
100.0135575767,49.8704075343,-4760.674
100.0135575767,49.8254917701,-4792.965
100.0135575767,49.7805760059,-4807.372
100.0135575767,49.7356602417,-4780.865
100.0135575767,49.6907444775,-4650.717
100.0135575767,49.6458287133,-4617.597
100.0135575767,49.6009129491,-4640.648
100.0135575767,49.5559971849,-4658.08
100.0135575767,49.5110814206,-4655.729
100.0135575767,49.4661656564,-4579.62
100.0135575767,49.4212498922,-4657.15
100.0135575767,49.3763341280,-4755.729
100.0135575767,49.3314183638,-4765.38
100.0135575767,49.2865025996,-4783.682
100.0135575767,49.2415868354,-4808.917
100.0135575767,49.1966710712,-4826.007
100.0135575767,49.1517553070,-4835.827
100.0135575767,49.1068395428,-4838.459
100.0135575767,49.0619237786,-4836.679
100.0135575767,49.0170080144,-4837.258
100.0135575767,48.9720922502,-4834.699
100.0135575767,48.9271764860,-4831.626
100.0135575767,48.8822607218,-4827.905
100.0135575767,48.8373449576,-4823.327
100.0135575767,48.7924291933,-4841.024
100.0135575767,48.7475134291,-4839.166
100.0135575767,48.7025976649,-4838.92
100.0135575767,48.6576819007,-4841.437
100.0135575767,48.6127661365,-4846.308
100.0135575767,48.5678503723,-4849.199
100.0135575767,48.5229346081,-4857
100.0135575767,48.4780188439,-4828.911
100.0135575767,48.4331030797,-4845.259
100.0135575767,48.3881873155,-4838.53
100.0135575767,48.3432715513,-4834.743
100.0135575767,48.2983557871,-4830.992
100.0135575767,48.2534400229,-4836.97
100.0135575767,48.2085242587,-4836.01
100.0135575767,48.1636084945,-4832.46
100.0135575767,48.1186927303,-4831.173
100.0135575767,48.0737769661,-4820.627
100.0135575767,48.0288612018,-4809.872
100.0135575767,47.9839454376,-4805.55
100.0135575767,47.9390296734,-4814.44
100.0135575767,47.8941139092,-4802.92
100.0135575767,47.8491981450,-4798.979
100.0135575767,47.8042823808,-4821.73
100.0135575767,47.7593666166,-4801.375
100.0135575767,47.7144508524,-4777.963
100.0135575767,47.6695350882,-4787.352
100.0135575767,47.6246193240,-4804.274
100.0135575767,47.5797035598,-4815.681
100.0135575767,47.5347877956,-4825.702
100.0135575767,47.4898720314,-4828.459
100.0135575767,47.4449562672,-4831.118
100.0135575767,47.4000405030,-4832.312
100.0135575767,47.3551247388,-4838.536
100.0135575767,47.3102089746,-4854.727
100.0135575767,47.2652932103,-4844.283
100.0135575767,47.2203774461,-4830.307
100.0135575767,47.1754616819,-4837.538
100.0135575767,47.1305459177,-4839.496
100.0135575767,47.0856301535,-4838.45
100.0135575767,47.0407143893,-4829.406
100.0135575767,46.9957986251,-4818.361
100.0135575767,46.9508828609,-4827.504
100.0135575767,46.9059670967,-4827.116
100.0135575767,46.8610513325,-4812.708
100.0135575767,46.8161355683,-4827.673
100.0135575767,46.7712198041,-4829.314
100.0135575767,46.7263040399,-4825.316
100.0135575767,46.6813882757,-4814.997
100.0135575767,46.6364725115,-4808.011
100.0135575767,46.5915567473,-4827.341
100.0135575767,46.5466409831,-4845.153
100.0135575767,46.5017252188,-4860.071
100.0135575767,46.4568094546,-4847.893
100.0135575767,46.4118936904,-4855.309
100.0135575767,46.3669779262,-4845.32
100.0135575767,46.3220621620,-4858.873
100.0135575767,46.2771463978,-4855.151
100.0135575767,46.2322306336,-4850.928
100.0135575767,46.1873148694,-4845.013
100.0135575767,46.1423991052,-4851.403
100.0135575767,46.0974833410,-4805.682
100.0135575767,46.0525675768,-4804.97
100.0135575767,46.0076518126,-4818.543
100.0135575767,45.9627360484,-4827.547
100.0135575767,45.9178202842,-4823.981
100.0135575767,45.8729045200,-4840.834
100.0135575767,45.8279887558,-4829.573
100.0135575767,45.7830729915,-4824.021
100.0135575767,45.7381572273,-4833.926
100.0135575767,45.6932414631,-4823.078
100.0135575767,45.6483256989,-4817.357
100.0135575767,45.6034099347,-4826.965
100.0135575767,45.5584941705,-4823.858
100.0135575767,45.5135784063,-4829.819
100.0135575767,45.4686626421,-4838.992
100.0135575767,45.4237468779,-4841.725
100.0135575767,45.3788311137,-4846.164
100.0135575767,45.3339153495,-4865.685
100.0135575767,45.2889995853,-4852.787
100.0135575767,45.2440838211,-4859.519
100.0135575767,45.1991680569,-4853.189
100.0135575767,45.1542522927,-4851.484
100.0135575767,45.1093365285,-4837.357
100.0135575767,45.0644207643,-4809.78
100.0135575767,45.0195050000,-4800.013
100.0135575767,44.9745892358,-4792.058
100.0135575767,44.9296734716,-4672.667
100.0135575767,44.8847577074,-4717.067
100.0135575767,44.8398419432,-4696.963
100.0135575767,44.7949261790,-4669.522
100.0135575767,44.7500104148,-4799.859
100.0135575767,44.7050946506,-4770.312
100.0135575767,44.6601788864,-4822.298
100.0135575767,44.6152631222,-4853.139
100.0135575767,44.5703473580,-4847.477
100.0135575767,44.5254315938,-4836.702
100.0135575767,44.4805158296,-4853.215
100.0135575767,44.4356000654,-4867.048
100.0135575767,44.3906843012,-4854.884
100.0135575767,44.3457685370,-4848.978
100.0135575767,44.3008527728,-4833.703
100.0135575767,44.2559370085,-4840.694
100.0135575767,44.2110212443,-4851.73
100.0135575767,44.1661054801,-4847.087
100.0135575767,44.1211897159,-4829.923
100.0135575767,44.0762739517,-4808.861
100.0135575767,44.0313581875,-4798.714
100.0135575767,43.9864424233,-4794.043
100.0135575767,43.9415266591,-4774.808
100.0135575767,43.8966108949,-4788.169
100.0135575767,43.8516951307,-4777.646
100.0135575767,43.8067793665,-4770.766
100.0135575767,43.7618636023,-4780.592
100.0135575767,43.7169478381,-4786.022
100.0135575767,43.6720320739,-4783.412
100.0135575767,43.6271163097,-4789.717
100.0135575767,43.5822005455,-4800.023
100.0135575767,43.5372847812,-4808.603
100.0135575767,43.4923690170,-4814.667
100.0135575767,43.4474532528,-4819.776
100.0135575767,43.4025374886,-4818.864
100.0135575767,43.3576217244,-4827.962
100.0135575767,43.3127059602,-4824.034
100.0135575767,43.2677901960,-4801.29
100.0135575767,43.2228744318,-4812.778
100.0135575767,43.1779586676,-4811.392
100.0135575767,43.1330429034,-4780.274
100.0135575767,43.0881271392,-4830.431
100.0135575767,43.0432113750,-4852.732
100.0135575767,42.9982956108,-4851.392
100.0135575767,42.9533798466,-4841.62
100.0135575767,42.9084640824,-4829.508
100.0135575767,42.8635483182,-4850.752
100.0135575767,42.8186325540,-4850.622
100.0135575767,42.7737167897,-4870.059
100.0135575767,42.7288010255,-4839.326
100.0135575767,42.6838852613,-4854.774
100.0135575767,42.6389694971,-4851.925
100.0135575767,42.5940537329,-4849.697
100.0135575767,42.5491379687,-4855.607
100.0135575767,42.5042222045,-4852.173
100.0135575767,42.4593064403,-4831.388
100.0135575767,42.4143906761,-4865.926
100.0135575767,42.3694749119,-4889.242
100.0135575767,42.3245591477,-4914.474
100.0135575767,42.2796433835,-4886.372
100.0135575767,42.2347276193,-4864.146
100.0135575767,42.1898118551,-4897.241
100.0135575767,42.1448960909,-4904.834
100.0135575767,42.0999803267,-4897.989
100.0135575767,42.0550645625,-4890.701
100.0135575767,42.0101487982,-4884.703
100.0584733409,51.9814484520,-4611.493
100.0584733409,51.9365326878,-4635.989
100.0584733409,51.8916169236,-4697.223
100.0584733409,51.8467011594,-4718.748
100.0584733409,51.8017853951,-4726.973
100.0584733409,51.7568696309,-4726.003
100.0584733409,51.7119538667,-4742.832
100.0584733409,51.6670381025,-4738.223
100.0584733409,51.6221223383,-4742.197
100.0584733409,51.5772065741,-4752.898
100.0584733409,51.5322908099,-4769.987
100.0584733409,51.4873750457,-4762.071
100.0584733409,51.4424592815,-4754.326
100.0584733409,51.3975435173,-4737.755
100.0584733409,51.3526277531,-4768.378
100.0584733409,51.3077119889,-4781.678
100.0584733409,51.2627962247,-4784.661
100.0584733409,51.2178804605,-4774.588
100.0584733409,51.1729646963,-4772.762
100.0584733409,51.1280489321,-4777.711
100.0584733409,51.0831331679,-4773.868
100.0584733409,51.0382174036,-4769.182
100.0584733409,50.9933016394,-4775.195
100.0584733409,50.9483858752,-4771.875
100.0584733409,50.9034701110,-4772.652
100.0584733409,50.8585543468,-4772.185
100.0584733409,50.8136385826,-4772.529
100.0584733409,50.7687228184,-4776.874
100.0584733409,50.7238070542,-4780.063
100.0584733409,50.6788912900,-4778.091
100.0584733409,50.6339755258,-4772.315
100.0584733409,50.5890597616,-4784.527
100.0584733409,50.5441439974,-4771.955
100.0584733409,50.4992282332,-4762.445
100.0584733409,50.4543124690,-4759.944
100.0584733409,50.4093967048,-4766.199
100.0584733409,50.3644809406,-4763.031
100.0584733409,50.3195651764,-4764.23
100.0584733409,50.2746494121,-4770.822
100.0584733409,50.2297336479,-4769.334
100.0584733409,50.1848178837,-4755.341
100.0584733409,50.1399021195,-4765.459
100.0584733409,50.0949863553,-4770.044
100.0584733409,50.0500705911,-4784.418
100.0584733409,50.0051548269,-4791.389
100.0584733409,49.9602390627,-4794.334
100.0584733409,49.9153232985,-4741.511
100.0584733409,49.8704075343,-4766.346
100.0584733409,49.8254917701,-4794.633
100.0584733409,49.7805760059,-4805.862
100.0584733409,49.7356602417,-4784.25
100.0584733409,49.6907444775,-4708.128
100.0584733409,49.6458287133,-4603.017
100.0584733409,49.6009129491,-4617.635
100.0584733409,49.5559971849,-4647.844
100.0584733409,49.5110814206,-4642.384
100.0584733409,49.4661656564,-4607.068
100.0584733409,49.4212498922,-4703.657
100.0584733409,49.3763341280,-4752.949
100.0584733409,49.3314183638,-4756.604
100.0584733409,49.2865025996,-4775.753
100.0584733409,49.2415868354,-4812.281
100.0584733409,49.1966710712,-4835.098
100.0584733409,49.1517553070,-4842.555
100.0584733409,49.1068395428,-4842.204
100.0584733409,49.0619237786,-4842.832
100.0584733409,49.0170080144,-4843.446
100.0584733409,48.9720922502,-4844.24
100.0584733409,48.9271764860,-4844.285
100.0584733409,48.8822607218,-4835.17
100.0584733409,48.8373449576,-4837.506
100.0584733409,48.7924291933,-4843.147
100.0584733409,48.7475134291,-4845.239
100.0584733409,48.7025976649,-4844.599
100.0584733409,48.6576819007,-4849.262
100.0584733409,48.6127661365,-4849.032
100.0584733409,48.5678503723,-4843.385
100.0584733409,48.5229346081,-4843.379
100.0584733409,48.4780188439,-4844.695
100.0584733409,48.4331030797,-4852.603
100.0584733409,48.3881873155,-4847.192
100.0584733409,48.3432715513,-4843.226
100.0584733409,48.2983557871,-4835.01
100.0584733409,48.2534400229,-4835.269
100.0584733409,48.2085242587,-4841.808
100.0584733409,48.1636084945,-4826.82
100.0584733409,48.1186927303,-4814.654
100.0584733409,48.0737769661,-4793.969
100.0584733409,48.0288612018,-4788.899
100.0584733409,47.9839454376,-4793.877
100.0584733409,47.9390296734,-4797.005
100.0584733409,47.8941139092,-4810.942
100.0584733409,47.8491981450,-4811.053
100.0584733409,47.8042823808,-4817.278
100.0584733409,47.7593666166,-4794.458
100.0584733409,47.7144508524,-4777.462
100.0584733409,47.6695350882,-4800.807
100.0584733409,47.6246193240,-4814.008
100.0584733409,47.5797035598,-4811.8
100.0584733409,47.5347877956,-4816.853
100.0584733409,47.4898720314,-4818.713
100.0584733409,47.4449562672,-4816.156
100.0584733409,47.4000405030,-4825.366
100.0584733409,47.3551247388,-4836.504
100.0584733409,47.3102089746,-4850.761
100.0584733409,47.2652932103,-4846.459
100.0584733409,47.2203774461,-4835.857
100.0584733409,47.1754616819,-4837.229
100.0584733409,47.1305459177,-4822.894
100.0584733409,47.0856301535,-4841.019
100.0584733409,47.0407143893,-4826.907
100.0584733409,46.9957986251,-4812.456
100.0584733409,46.9508828609,-4818.245
100.0584733409,46.9059670967,-4815.958
100.0584733409,46.8610513325,-4831.163
100.0584733409,46.8161355683,-4830.143
100.0584733409,46.7712198041,-4840.75
100.0584733409,46.7263040399,-4843.297
100.0584733409,46.6813882757,-4817.282
100.0584733409,46.6364725115,-4786.052
100.0584733409,46.5915567473,-4797.895
100.0584733409,46.5466409831,-4823.609
100.0584733409,46.5017252188,-4836.185
100.0584733409,46.4568094546,-4842.075
100.0584733409,46.4118936904,-4854.446
100.0584733409,46.3669779262,-4852.967
100.0584733409,46.3220621620,-4865.7
100.0584733409,46.2771463978,-4868.382
100.0584733409,46.2322306336,-4854.594
100.0584733409,46.1873148694,-4813.857
100.0584733409,46.1423991052,-4843.609
100.0584733409,46.0974833410,-4812.561
100.0584733409,46.0525675768,-4827.2
100.0584733409,46.0076518126,-4835.604
100.0584733409,45.9627360484,-4832.358
100.0584733409,45.9178202842,-4823.027
100.0584733409,45.8729045200,-4832.828
100.0584733409,45.8279887558,-4839.948
100.0584733409,45.7830729915,-4823.579
100.0584733409,45.7381572273,-4830.546
100.0584733409,45.6932414631,-4845.457
100.0584733409,45.6483256989,-4816.222
100.0584733409,45.6034099347,-4833.003
100.0584733409,45.5584941705,-4864.32
100.0584733409,45.5135784063,-4870.74
100.0584733409,45.4686626421,-4860.912
100.0584733409,45.4237468779,-4883.869
100.0584733409,45.3788311137,-4897.516
100.0584733409,45.3339153495,-4885.45
100.0584733409,45.2889995853,-4876.495
100.0584733409,45.2440838211,-4864.135
100.0584733409,45.1991680569,-4858.789
100.0584733409,45.1542522927,-4859.125
100.0584733409,45.1093365285,-4843.638
100.0584733409,45.0644207643,-4824.639
100.0584733409,45.0195050000,-4819.962
100.0584733409,44.9745892358,-4797.423
100.0584733409,44.9296734716,-4725.975
100.0584733409,44.8847577074,-4709.739
100.0584733409,44.8398419432,-4686.704
100.0584733409,44.7949261790,-4745.529
100.0584733409,44.7500104148,-4810.173
100.0584733409,44.7050946506,-4780.887
100.0584733409,44.6601788864,-4810.392
100.0584733409,44.6152631222,-4851.624
100.0584733409,44.5703473580,-4844.655
100.0584733409,44.5254315938,-4877.608
100.0584733409,44.4805158296,-4877.403
100.0584733409,44.4356000654,-4870.684
100.0584733409,44.3906843012,-4852.72
100.0584733409,44.3457685370,-4844.055
100.0584733409,44.3008527728,-4833.703
100.0584733409,44.2559370085,-4835.633
100.0584733409,44.2110212443,-4832.155
100.0584733409,44.1661054801,-4836.978
100.0584733409,44.1211897159,-4827.883
100.0584733409,44.0762739517,-4808.164
100.0584733409,44.0313581875,-4790.264
100.0584733409,43.9864424233,-4782.935
100.0584733409,43.9415266591,-4778.041
100.0584733409,43.8966108949,-4778.896
100.0584733409,43.8516951307,-4778.339
100.0584733409,43.8067793665,-4769.312
100.0584733409,43.7618636023,-4781.387
100.0584733409,43.7169478381,-4794.513
100.0584733409,43.6720320739,-4780.104
100.0584733409,43.6271163097,-4791.142
100.0584733409,43.5822005455,-4801.09
100.0584733409,43.5372847812,-4797.321
100.0584733409,43.4923690170,-4815.513
100.0584733409,43.4474532528,-4832.534
100.0584733409,43.4025374886,-4833.901
100.0584733409,43.3576217244,-4829.959
100.0584733409,43.3127059602,-4817.447
100.0584733409,43.2677901960,-4809.639
100.0584733409,43.2228744318,-4819.694
100.0584733409,43.1779586676,-4816.492
100.0584733409,43.1330429034,-4824.915
100.0584733409,43.0881271392,-4848.301
100.0584733409,43.0432113750,-4862.575
100.0584733409,42.9982956108,-4860.638
100.0584733409,42.9533798466,-4831.672
100.0584733409,42.9084640824,-4837.146
100.0584733409,42.8635483182,-4855.808
100.0584733409,42.8186325540,-4845.308
100.0584733409,42.7737167897,-4846.198
100.0584733409,42.7288010255,-4835.877
100.0584733409,42.6838852613,-4843.036
100.0584733409,42.6389694971,-4867.112
100.0584733409,42.5940537329,-4858.191
100.0584733409,42.5491379687,-4845.337
100.0584733409,42.5042222045,-4847.723
100.0584733409,42.4593064403,-4821.033
100.0584733409,42.4143906761,-4839.604
100.0584733409,42.3694749119,-4883.509
100.0584733409,42.3245591477,-4910.993
100.0584733409,42.2796433835,-4903.335
100.0584733409,42.2347276193,-4877.953
100.0584733409,42.1898118551,-4901.28
100.0584733409,42.1448960909,-4900.423
100.0584733409,42.0999803267,-4886.888
100.0584733409,42.0550645625,-4887.596
100.0584733409,42.0101487982,-4895.479
100.1033891051,51.9814484520,-4627.582
100.1033891051,51.9365326878,-4640.217
100.1033891051,51.8916169236,-4693.333
100.1033891051,51.8467011594,-4710.217
100.1033891051,51.8017853951,-4728.372
100.1033891051,51.7568696309,-4734.386
100.1033891051,51.7119538667,-4743.63
100.1033891051,51.6670381025,-4745.129
100.1033891051,51.6221223383,-4748.875
100.1033891051,51.5772065741,-4753.438
100.1033891051,51.5322908099,-4771.191
100.1033891051,51.4873750457,-4763.494
100.1033891051,51.4424592815,-4772.697
100.1033891051,51.3975435173,-4776.333
100.1033891051,51.3526277531,-4771.227
100.1033891051,51.3077119889,-4768.581
100.1033891051,51.2627962247,-4779.998
100.1033891051,51.2178804605,-4776.51
100.1033891051,51.1729646963,-4779.952
100.1033891051,51.1280489321,-4771.136
100.1033891051,51.0831331679,-4765.325
100.1033891051,51.0382174036,-4774.997
100.1033891051,50.9933016394,-4783.226
100.1033891051,50.9483858752,-4772.458
100.1033891051,50.9034701110,-4773.802
100.1033891051,50.8585543468,-4770.431
100.1033891051,50.8136385826,-4770.696
100.1033891051,50.7687228184,-4771.689
100.1033891051,50.7238070542,-4775.209
100.1033891051,50.6788912900,-4773.242
100.1033891051,50.6339755258,-4771.07
100.1033891051,50.5890597616,-4793.708
100.1033891051,50.5441439974,-4775.228
100.1033891051,50.4992282332,-4772.568
100.1033891051,50.4543124690,-4769.212
100.1033891051,50.4093967048,-4767.644
100.1033891051,50.3644809406,-4769.398
100.1033891051,50.3195651764,-4766.367
100.1033891051,50.2746494121,-4762.351
100.1033891051,50.2297336479,-4758.084
100.1033891051,50.1848178837,-4761.742
100.1033891051,50.1399021195,-4782.887
100.1033891051,50.0949863553,-4779.051
100.1033891051,50.0500705911,-4789.319
100.1033891051,50.0051548269,-4796.052
100.1033891051,49.9602390627,-4795.657
100.1033891051,49.9153232985,-4753.195
100.1033891051,49.8704075343,-4764.774
100.1033891051,49.8254917701,-4791.981
100.1033891051,49.7805760059,-4792.446
100.1033891051,49.7356602417,-4781.955
